ply
format ascii 1.0
comment PCL generated
element vertex 1059
property float x
property float y
property float z
property float nx
property float ny
property float nz
property float curvature
element face 0
element camera 0
property float view_px
property float view_py
property float view_pz
property float x_axisx
property float x_axisy
property float x_axisz
property float y_axisx
property float y_axisy
property float y_axisz
property float z_axisx
property float z_axisy
property float z_axisz
property float focal
property float scalex
property float scaley
property float centerx
property float centery
property int viewportx
property int viewporty
property float k1
property float k2
end_header
0.054918565 -0.40513846 -0.08273273 0 0 0 0
0.064988725 -0.40498841 -0.082759999 0 0 0 0
0.075015403 -0.40516457 -0.082728252 0 0 0 0
0.084957555 -0.40497604 -0.082701504 0 0 0 0
0.095298849 -0.40505648 -0.082509823 0 0 0 0
0.10140539 -0.4045864 -0.081809372 0 0 0 0
-0.010654979 -0.39057314 -0.082222797 0 0 0 0
-0.0040030731 -0.39348471 -0.081930913 0 0 0 0
0.0047324887 -0.39506403 -0.082301728 0 0 0 0
0.014992066 -0.39513072 -0.082346946 0 0 0 0
0.024850892 -0.39499459 -0.082360096 0 0 0 0
0.034925643 -0.39499307 -0.082307853 0 0 0 0
0.04493073 -0.39494577 -0.082310811 0 0 0 0
0.054899544 -0.39506578 -0.082320333 0 0 0 0
0.064953551 -0.39500353 -0.082311414 0 0 0 0
0.07495895 -0.39512557 -0.082279503 0 0 0 0
0.084928498 -0.3947556 -0.082145981 0 0 0 0
0.093588293 -0.39748555 -0.081938446 0 0 0 0
-0.021454051 -0.38113025 -0.081281938 0 0 0 0
-0.014188028 -0.38438821 -0.081708066 0 0 0 0
-0.0051608323 -0.38498616 -0.082018666 0 0 0 0
0.0049868389 -0.38500211 -0.081940927 0 0 0 0
0.015171859 -0.38513106 -0.081976078 0 0 0 0
0.024927154 -0.38493842 -0.081931256 0 0 0 0
0.034820493 -0.38508251 -0.081901982 0 0 0 0
0.04494207 -0.38500324 -0.081937686 0 0 0 0
0.054853294 -0.38503289 -0.081916034 0 0 0 0
0.064898245 -0.3850311 -0.081909604 0 0 0 0
0.074530184 -0.38516927 -0.081718899 0 0 0 0
0.082114264 -0.38788471 -0.081672139 0 0 0 0
-0.022205753 -0.37692305 -0.081517078 0 0 0 0
-0.015103734 -0.37504703 -0.081575722 0 0 0 0
-0.0050905328 -0.37505341 -0.081629992 0 0 0 0
0.0048888186 -0.37507778 -0.081570439 0 0 0 0
0.015063141 -0.37497562 -0.08157099 0 0 0 0
0.024977457 -0.37498841 -0.081575051 0 0 0 0
0.034822371 -0.37510151 -0.081569463 0 0 0 0
0.044807892 -0.37504616 -0.081515595 0 0 0 0
0.054933716 -0.37499672 -0.081530631 0 0 0 0
0.064352825 -0.37579858 -0.08148928 0 0 0 0
0.071448587 -0.3785533 -0.081166416 0 0 0 0
-0.012939975 -0.36630443 -0.081194557 0 0 0 0
-0.004971032 -0.36493784 -0.081264026 0 0 0 0
0.0049765771 -0.36498529 -0.081272185 0 0 0 0
0.014895483 -0.36499533 -0.081227332 0 0 0 0
0.024901759 -0.36498821 -0.081297152 0 0 0 0
0.034891326 -0.36517137 -0.081208318 0 0 0 0
0.04482685 -0.36491707 -0.081260294 0 0 0 0
0.053886946 -0.3665829 -0.08123824 0 0 0 0
0.060466193 -0.36918765 -0.080969319 0 0 0 0
-0.0036423949 -0.35582471 -0.081042983 0 0 0 0
0.0049203597 -0.35494578 -0.08103925 0 0 0 0
0.014784925 -0.35517365 -0.081064351 0 0 0 0
0.025006495 -0.35530809 -0.081024408 0 0 0 0
0.034958832 -0.35518977 -0.081023 0 0 0 0
0.043500826 -0.35757601 -0.081031621 0 0 0 0
-0.00081996433 -0.34828129 -0.080976523 0 0 0 0
0.0053896485 -0.3459191 -0.080845416 0 0 0 0
0.014845881 -0.34552163 -0.080831729 0 0 0 0
0.024601962 -0.34569025 -0.080842033 0 0 0 0
0.032302015 -0.34821722 -0.080800518 0 0 0 0
0.00842572 -0.33836901 -0.080599211 0 0 0 0
0.014755372 -0.33667165 -0.080651835 0 0 0 0
0.021717874 -0.33862081 -0.080638625 0 0 0 0
0.064947315 -0.45059705 -0.074343607 0 0 0 0
0.049764324 -0.44069135 -0.070665136 0 0 0 0
0.055501465 -0.44348693 -0.075027145 0 0 0 0
0.065235019 -0.44776532 -0.075210534 0 0 0 0
0.072290033 -0.4426451 -0.074973941 0 0 0 0
0.038783103 -0.43085814 -0.074395329 0 0 0 0
0.044997744 -0.43487731 -0.074871771 0 0 0 0
0.051032063 -0.43903577 -0.075369701 0 0 0 0
0.077049278 -0.43620309 -0.075072624 0 0 0 0
0.081375606 -0.4316164 -0.074796833 0 0 0 0
0.02808696 -0.42154193 -0.075035565 0 0 0 0
0.034542803 -0.42631698 -0.075007476 0 0 0 0
0.04004484 -0.42986321 -0.072217286 0 0 0 0
0.085850656 -0.42535478 -0.074891843 0 0 0 0
0.090563089 -0.42071038 -0.0749152 0 0 0 0
0.016988112 -0.41244957 -0.075156786 0 0 0 0
0.023371084 -0.41721728 -0.075084902 0 0 0 0
0.089490518 -0.41907457 -0.074543409 0 0 0 0
0.094469607 -0.41480485 -0.07500159 0 0 0 0
0.0057396018 -0.4032999 -0.07506822 0 0 0 0
0.01228412 -0.40822357 -0.075106114 0 0 0 0
0.098755993 -0.40460503 -0.074904211 0 0 0 0
0.10158907 -0.4047932 -0.075031795 0 0 0 0
-0.011120605 -0.3906779 -0.075177103 0 0 0 0
-0.0050508785 -0.3945137 -0.075056858 0 0 0 0
0.001227232 -0.39890668 -0.074991576 0 0 0 0
0.087513857 -0.39212939 -0.074960485 0 0 0 0
0.093866237 -0.39690924 -0.075195275 0 0 0 0
-0.021669107 -0.38131803 -0.07469628 0 0 0 0
-0.015396486 -0.38603988 -0.075020298 0 0 0 0
-0.0095240893 -0.38977766 -0.076339826 0 0 0 0
0.0051714093 -0.38254762 -0.079856433 0 0 0 0
0.019849133 -0.3876898 -0.079944625 0 0 0 0
0.028315119 -0.38347843 -0.079804793 0 0 0 0
0.047585435 -0.3854084 -0.07988634 0 0 0 0
0.055565096 -0.38129181 -0.079749435 0 0 0 0
0.066746183 -0.38732731 -0.079967447 0 0 0 0
0.07620731 -0.38296351 -0.07504344 0 0 0 0
0.082610793 -0.38779795 -0.074875623 0 0 0 0
-0.022557205 -0.37677565 -0.075173721 0 0 0 0
-0.018146813 -0.37223434 -0.075294361 0 0 0 0
-0.0045273346 -0.37429312 -0.079831474 0 0 0 0
0.0047268113 -0.37331021 -0.079834625 0 0 0 0
0.014774379 -0.37515178 -0.079880334 0 0 0 0
0.025126424 -0.37372845 -0.079857558 0 0 0 0
0.034891773 -0.3735401 -0.079850309 0 0 0 0
0.045014367 -0.37466723 -0.079870567 0 0 0 0
0.057370964 -0.371434 -0.07691396 0 0 0 0
0.065310165 -0.37412509 -0.075095482 0 0 0 0
0.071518466 -0.37866938 -0.075054765 0 0 0 0
-0.01380629 -0.36576769 -0.075078972 0 0 0 0
-0.0074880454 -0.36225101 -0.076864459 0 0 0 0
0.0054520248 -0.36480638 -0.079705849 0 0 0 0
0.014783143 -0.36444005 -0.079698011 0 0 0 0
0.025130216 -0.36474875 -0.079731546 0 0 0 0
0.035284888 -0.36408103 -0.079673722 0 0 0 0
0.047704652 -0.36196232 -0.076188259 0 0 0 0
0.05480919 -0.36555547 -0.075126767 0 0 0 0
0.060760558 -0.36955053 -0.075552501 0 0 0 0
-0.010684291 -0.35977402 -0.075468078 0 0 0 0
-0.0049420414 -0.35512647 -0.075449392 0 0 0 0
0.0048865732 -0.35402283 -0.079335734 0 0 0 0
0.014791066 -0.35440373 -0.07962703 0 0 0 0
0.024857819 -0.35442051 -0.079587743 0 0 0 0
0.036586463 -0.35263467 -0.076289378 0 0 0 0
0.043845091 -0.35671666 -0.075129427 0 0 0 0
-0.0009613572 -0.34891984 -0.075823575 0 0 0 0
0.0040808632 -0.34450513 -0.075671606 0 0 0 0
0.015025301 -0.34449911 -0.07945092 0 0 0 0
0.025846958 -0.34343058 -0.075976849 0 0 0 0
0.032746535 -0.3477141 -0.075429842 0 0 0 0
0.0084650451 -0.33789781 -0.075441554 0 0 0 0
0.014695938 -0.33484602 -0.075594857 0 0 0 0
0.021861563 -0.33872941 -0.075058974 0 0 0 0
0.064694285 -0.45073 -0.064686857 0 0 0 0
0.049605042 -0.44044176 -0.063366964 0 0 0 0
0.055390794 -0.44373199 -0.065033242 0 0 0 0
0.06558381 -0.44787985 -0.065065309 0 0 0 0
0.072449379 -0.44296983 -0.064935699 0 0 0 0
0.03889605 -0.43108511 -0.064461388 0 0 0 0
0.044874247 -0.43514454 -0.064865783 0 0 0 0
0.050690234 -0.43918598 -0.06549187 0 0 0 0
0.076991215 -0.4365344 -0.06507542 0 0 0 0
0.081480213 -0.43184686 -0.06504415 0 0 0 0
0.027952241 -0.42185816 -0.064992838 0 0 0 0
0.034435216 -0.42660853 -0.065061092 0 0 0 0
0.08617416 -0.4253405 -0.064850122 0 0 0 0
0.09069252 -0.42100137 -0.065226153 0 0 0 0
0.016793525 -0.41269895 -0.064898327 0 0 0 0
0.023191629 -0.41747579 -0.06524349 0 0 0 0
0.089335121 -0.41942328 -0.065915562 0 0 0 0
0.094657615 -0.41497135 -0.065006554 0 0 0 0
0.10021436 -0.4102743 -0.063230172 0 0 0 0
-0.00031933561 -0.40016776 -0.066885851 0 0 0 0
0.0056226109 -0.40362436 -0.064939074 0 0 0 0
0.012242118 -0.40848109 -0.06520354 0 0 0 0
0.098454252 -0.40403298 -0.064782307 0 0 0 0
0.10155077 -0.40521696 -0.064947978 0 0 0 0
-0.010983794 -0.39084664 -0.064725585 0 0 0 0
-0.0049665696 -0.39492479 -0.065067515 0 0 0 0
0.00091111282 -0.39907658 -0.06532117 0 0 0 0
0.087141164 -0.39223108 -0.064772978 0 0 0 0
0.093511231 -0.39703721 -0.065151885 0 0 0 0
-0.021897819 -0.3815181 -0.064828709 0 0 0 0
-0.015496626 -0.38635778 -0.064965248 0 0 0 0
-0.0099054184 -0.38986221 -0.064391904 0 0 0 0
0.075969316 -0.38318327 -0.065056995 0 0 0 0
0.082361214 -0.38794115 -0.065049164 0 0 0 0
-0.022567865 -0.37686199 -0.065037973 0 0 0 0
-0.018222401 -0.3721512 -0.064933509 0 0 0 0
0.059047047 -0.3707006 -0.064655922 0 0 0 0
0.065153919 -0.37435427 -0.064973332 0 0 0 0
0.071270086 -0.37877342 -0.065426946 0 0 0 0
-0.013472996 -0.36563203 -0.065092981 0 0 0 0
-0.008973564 -0.36115828 -0.065284833 0 0 0 0
0.048266195 -0.36118156 -0.064930819 0 0 0 0
0.054704048 -0.36581966 -0.065092884 0 0 0 0
0.060400531 -0.36955786 -0.065662898 0 0 0 0
-0.010453697 -0.35941923 -0.067892455 0 0 0 0
-0.0048038242 -0.3550553 -0.064986221 0 0 0 0
0.00026863022 -0.35055348 -0.064434968 0 0 0 0
0.037476972 -0.3522799 -0.064909354 0 0 0 0
0.043754444 -0.35690725 -0.065116562 0 0 0 0
-0.00077796652 -0.34879556 -0.064983718 0 0 0 0
0.0037959844 -0.3445324 -0.065031804 0 0 0 0
0.026037337 -0.34296393 -0.064986445 0 0 0 0
0.03258856 -0.34782726 -0.065186195 0 0 0 0
0.0085164588 -0.33800966 -0.065155081 0 0 0 0
0.01453895 -0.33489472 -0.065006047 0 0 0 0
0.021535622 -0.33879626 -0.064994663 0 0 0 0
0.064854793 -0.45088536 -0.055016957 0 0 0 0
0.049331654 -0.44056895 -0.053277347 0 0 0 0
0.055353228 -0.44412509 -0.054973256 0 0 0 0
0.065627694 -0.44812459 -0.055038996 0 0 0 0
0.072556749 -0.44301298 -0.055020414 0 0 0 0
0.038608842 -0.43107614 -0.054923337 0 0 0 0
0.044944823 -0.43560496 -0.055018067 0 0 0 0
0.050768685 -0.43945619 -0.055118401 0 0 0 0
0.077314883 -0.43659478 -0.055134621 0 0 0 0
0.081520602 -0.43202588 -0.055114873 0 0 0 0
0.027716497 -0.42197224 -0.054856125 0 0 0 0
0.034154736 -0.42675519 -0.055075485 0 0 0 0
0.086256303 -0.42559838 -0.054987662 0 0 0 0
0.090846494 -0.42106706 -0.054685805 0 0 0 0
0.016418226 -0.41277289 -0.054985408 0 0 0 0
0.023045562 -0.41773856 -0.05522408 0 0 0 0
0.089522354 -0.41955194 -0.055819467 0 0 0 0
0.094977416 -0.41485304 -0.055019811 0 0 0 0
0.10044041 -0.4102557 -0.053220343 0 0 0 0
-0.00044626478 -0.40074483 -0.05329166 0 0 0 0
0.0053655636 -0.40377688 -0.055002458 0 0 0 0
0.01190552 -0.40855005 -0.055170447 0 0 0 0
0.098329253 -0.40370011 -0.054875877 0 0 0 0
0.10152068 -0.40556723 -0.054890927 0 0 0 0
-0.011329349 -0.39091361 -0.05487407 0 0 0 0
-0.0050732731 -0.39521807 -0.055103488 0 0 0 0
0.00077677681 -0.39920509 -0.054506917 0 0 0 0
0.086842149 -0.39240339 -0.054954249 0 0 0 0
0.093328543 -0.39724413 -0.054998111 0 0 0 0
-0.022201257 -0.38162324 -0.055054471 0 0 0 0
-0.015719496 -0.38654691 -0.054802224 0 0 0 0
0.069669791 -0.38047433 -0.055368386 0 0 0 0
0.075789489 -0.38346714 -0.054935366 0 0 0 0
0.082167618 -0.38810188 -0.055130932 0 0 0 0
-0.022381451 -0.37699121 -0.055013418 0 0 0 0
-0.017974542 -0.37225655 -0.054820631 0 0 0 0
0.05907939 -0.37088504 -0.054776177 0 0 0 0
0.065067366 -0.37466636 -0.05495549 0 0 0 0
0.071322344 -0.37904438 -0.055206008 0 0 0 0
-0.013442404 -0.36588395 -0.055165585 0 0 0 0
-0.0088355234 -0.36120054 -0.054927375 0 0 0 0
0.048077211 -0.36132357 -0.054796964 0 0 0 0
0.054566424 -0.36608818 -0.055076882 0 0 0 0
0.060334004 -0.36978295 -0.055324316 0 0 0 0
-0.01013082 -0.35919595 -0.05541835 0 0 0 0
-0.0046591535 -0.35516164 -0.054989766 0 0 0 0
0.00034285698 -0.35072419 -0.053998716 0 0 0 0
0.03702087 -0.35224268 -0.054865666 0 0 0 0
0.043442562 -0.3570655 -0.054979745 0 0 0 0
-0.00072552066 -0.34884614 -0.054599706 0 0 0 0
0.0039164731 -0.34475213 -0.055128638 0 0 0 0
0.025928752 -0.34321204 -0.054929022 0 0 0 0
0.032300197 -0.34798619 -0.055149917 0 0 0 0
0.0086249616 -0.33833808 -0.054993354 0 0 0 0
0.014560404 -0.33526772 -0.055062912 0 0 0 0
0.021311939 -0.33890653 -0.05511006 0 0 0 0
0.064633369 -0.45108044 -0.044839609 0 0 0 0
0.04914923 -0.4407908 -0.044045012 0 0 0 0
0.05517301 -0.44433129 -0.044905078 0 0 0 0
0.065647058 -0.4482637 -0.045247905 0 0 0 0
0.072684281 -0.44336185 -0.045022383 0 0 0 0
0.038380064 -0.43128908 -0.044547126 0 0 0 0
0.044680756 -0.43572405 -0.045098171 0 0 0 0
0.050633613 -0.43950674 -0.045436312 0 0 0 0
0.077338777 -0.43683228 -0.045086656 0 0 0 0
0.081727535 -0.43223241 -0.045080137 0 0 0 0
0.027358497 -0.42212799 -0.044998951 0 0 0 0
0.033825617 -0.42686954 -0.045131166 0 0 0 0
0.086326592 -0.42583784 -0.045033056 0 0 0 0
0.090947971 -0.42128485 -0.044708595 0 0 0 0
0.016110497 -0.41294819 -0.044986241 0 0 0 0
0.022633543 -0.41778955 -0.045228358 0 0 0 0
0.089457773 -0.41985551 -0.045702845 0 0 0 0
0.095091164 -0.41510928 -0.045034099 0 0 0 0
0.10038748 -0.41054207 -0.043886211 0 0 0 0
-0.00081377488 -0.40039676 -0.044727914 0 0 0 0
0.0052707372 -0.40410179 -0.044917196 0 0 0 0
0.011791927 -0.40878135 -0.045006949 0 0 0 0
0.098198295 -0.40348941 -0.045326352 0 0 0 0
0.10159332 -0.40582666 -0.044950411 0 0 0 0
-0.011183266 -0.3912054 -0.044878703 0 0 0 0
-0.0050491872 -0.39561045 -0.045159385 0 0 0 0
0.00086730713 -0.39947599 -0.045565858 0 0 0 0
0.086658537 -0.39268327 -0.044963717 0 0 0 0
0.092999481 -0.39743835 -0.04484133 0 0 0 0
-0.022383219 -0.38190806 -0.044899974 0 0 0 0
-0.016025629 -0.38671488 -0.044945154 0 0 0 0
-0.009893598 -0.38994029 -0.044404518 0 0 0 0
0.069279589 -0.38032091 -0.042769257 0 0 0 0
0.07563132 -0.38371706 -0.044883363 0 0 0 0
0.082094289 -0.38838243 -0.044941865 0 0 0 0
-0.022121089 -0.37698615 -0.045324381 0 0 0 0
-0.017930137 -0.37247521 -0.044876624 0 0 0 0
0.058936205 -0.37087059 -0.044617467 0 0 0 0
0.065040357 -0.37501687 -0.044938788 0 0 0 0
0.071102463 -0.37916431 -0.04582984 0 0 0 0
-0.013204844 -0.36606592 -0.045155119 0 0 0 0
-0.0086939735 -0.36139098 -0.044818804 0 0 0 0
0.047989916 -0.36158445 -0.045099225 0 0 0 0
0.054497872 -0.36642447 -0.045016762 0 0 0 0
0.060278274 -0.36983475 -0.048870504 0 0 0 0
-0.010075584 -0.35981524 -0.044864174 0 0 0 0
-0.0044613481 -0.35528886 -0.045010291 0 0 0 0
0.00049985433 -0.35096791 -0.044382103 0 0 0 0
0.036885049 -0.3525506 -0.04503604 0 0 0 0
0.043274108 -0.35728687 -0.045131419 0 0 0 0
-0.00068691786 -0.34922311 -0.045133874 0 0 0 0
0.0040937229 -0.34492138 -0.045001823 0 0 0 0
0.019844847 -0.34028402 -0.045870155 0 0 0 0
0.025707601 -0.34343892 -0.0449632 0 0 0 0
0.032125849 -0.34830263 -0.045086782 0 0 0 0
0.0085349269 -0.33857504 -0.045389924 0 0 0 0
0.014520552 -0.33558396 -0.044977095 0 0 0 0
0.021106042 -0.33907837 -0.045295905 0 0 0 0
0.05977736 -0.45014152 -0.035289556 0 0 0 0
0.064569376 -0.45119223 -0.034868356 0 0 0 0
0.048941743 -0.44077963 -0.034755837 0 0 0 0
0.05508003 -0.44464844 -0.034948174 0 0 0 0
0.066155531 -0.44831371 -0.035409745 0 0 0 0
0.072876908 -0.44338197 -0.03492777 0 0 0 0
0.038230821 -0.43138728 -0.034875404 0 0 0 0
0.044622432 -0.43609214 -0.035011906 0 0 0 0
0.050282001 -0.43963146 -0.035542313 0 0 0 0
0.077616744 -0.43697563 -0.035079263 0 0 0 0
0.081835285 -0.43238202 -0.034978636 0 0 0 0
0.027021255 -0.42222852 -0.035090767 0 0 0 0
0.033559337 -0.42707366 -0.035082407 0 0 0 0
0.086544923 -0.42591265 -0.034991279 0 0 0 0
0.091080792 -0.42123857 -0.034749765 0 0 0 0
0.016054152 -0.41325697 -0.034928396 0 0 0 0
0.022452155 -0.41801444 -0.035263579 0 0 0 0
0.089508474 -0.41940755 -0.039500222 0 0 0 0
0.095294714 -0.41514638 -0.035037979 0 0 0 0
0.10036397 -0.41045004 -0.034485117 0 0 0 0
-0.00088616821 -0.40061197 -0.034135956 0 0 0 0
0.005205818 -0.40442765 -0.034906235 0 0 0 0
0.011580101 -0.40895981 -0.035260201 0 0 0 0
0.097908281 -0.4031302 -0.035187688 0 0 0 0
0.10154289 -0.40615743 -0.034845091 0 0 0 0
-0.011657601 -0.39134434 -0.034738466 0 0 0 0
-0.0052465536 -0.39585447 -0.03513943 0 0 0 0
0.00051269139 -0.39952186 -0.036768999 0 0 0 0
0.086380661 -0.39283508 -0.034942061 0 0 0 0
0.092978016 -0.39771232 -0.035025526 0 0 0 0
-0.022511313 -0.38215509 -0.034994565 0 0 0 0
-0.016001163 -0.38710204 -0.034978572 0 0 0 0
0.069215335 -0.38053694 -0.032919593 0 0 0 0
0.075471789 -0.3839564 -0.034817625 0 0 0 0
0.081955455 -0.38866386 -0.035216123 0 0 0 0
-0.022189805 -0.3773928 -0.035389267 0 0 0 0
-0.017847866 -0.37260032 -0.034767088 0 0 0 0
0.058759954 -0.3710008 -0.034796115 0 0 0 0
0.064807817 -0.37523505 -0.034950055 0 0 0 0
0.070865452 -0.37926164 -0.035679378 0 0 0 0
-0.012963793 -0.3660956 -0.03510369 0 0 0 0
-0.0086200032 -0.36156127 -0.034932029 0 0 0 0
0.047762744 -0.36183852 -0.034985691 0 0 0 0
0.054107133 -0.36647379 -0.035213385 0 0 0 0
-0.0041156546 -0.35525408 -0.034889668 0 0 0 0
0.00075386663 -0.35077751 -0.034927323 0 0 0 0
0.036559898 -0.35265252 -0.035096698 0 0 0 0
0.043084491 -0.35753641 -0.035222173 0 0 0 0
-0.00063379447 -0.34932688 -0.034017626 0 0 0 0
0.0045263516 -0.34470671 -0.035073414 0 0 0 0
0.019620987 -0.34039494 -0.035506047 0 0 0 0
0.025712406 -0.34382495 -0.035015207 0 0 0 0
0.032011792 -0.34852731 -0.0351317 0 0 0 0
0.0088944249 -0.33845207 -0.035155751 0 0 0 0
0.014608663 -0.33597231 -0.034976333 0 0 0 0
0.020882253 -0.33914277 -0.035205737 0 0 0 0
0.059814438 -0.45062128 -0.023924952 0 0 0 0
0.064722732 -0.45146051 -0.02496139 0 0 0 0
0.0489957 -0.44099012 -0.024988178 0 0 0 0
0.055115767 -0.44504836 -0.024973331 0 0 0 0
0.066087529 -0.44859806 -0.025067264 0 0 0 0
0.073029868 -0.44357049 -0.024894699 0 0 0 0
0.038067427 -0.43160602 -0.024820548 0 0 0 0
0.044539455 -0.43637541 -0.025015175 0 0 0 0
0.050256111 -0.43955517 -0.027707001 0 0 0 0
0.077714257 -0.437154 -0.025064975 0 0 0 0
0.081960164 -0.43244499 -0.024812946 0 0 0 0
0.026884543 -0.42243618 -0.025088834 0 0 0 0
0.033365171 -0.4273304 -0.025236376 0 0 0 0
0.08680103 -0.42595646 -0.024984488 0 0 0 0
0.09112563 -0.42153302 -0.024676174 0 0 0 0
0.0098610707 -0.41020966 -0.025027916 0 0 0 0
0.015780147 -0.41343886 -0.025027463 0 0 0 0
0.022082008 -0.41809341 -0.025138017 0 0 0 0
0.095614515 -0.41514835 -0.02498653 0 0 0 0
0.1007477 -0.41047239 -0.024511447 0 0 0 0
-0.0012593393 -0.40077418 -0.024160346 0 0 0 0
0.005035216 -0.40465963 -0.025078638 0 0 0 0
0.011270203 -0.40900972 -0.025106302 0 0 0 0
0.097548842 -0.40291125 -0.025043726 0 0 0 0
0.10157068 -0.40655687 -0.024868222 0 0 0 0
-0.011928767 -0.39145496 -0.024709564 0 0 0 0
-0.0054256911 -0.39607969 -0.02500217 0 0 0 0
0.0002801033 -0.39962247 -0.025153557 0 0 0 0
0.08623562 -0.3931095 -0.024848606 0 0 0 0
0.092533223 -0.39780083 -0.025071273 0 0 0 0
-0.02264335 -0.38233688 -0.025048781 0 0 0 0
-0.016367897 -0.3871713 -0.02508853 0 0 0 0
0.06941013 -0.3807607 -0.024435893 0 0 0 0
0.075485609 -0.38430789 -0.024905188 0 0 0 0
0.08175648 -0.38884041 -0.025525579 0 0 0 0
-0.02197537 -0.3774769 -0.025235802 0 0 0 0
-0.017702665 -0.37280804 -0.024868166 0 0 0 0
0.058549605 -0.37117025 -0.024933361 0 0 0 0
0.064848512 -0.37562558 -0.024873393 0 0 0 0
0.070829049 -0.37951976 -0.025255986 0 0 0 0
-0.012807565 -0.36625421 -0.024972292 0 0 0 0
-0.0085829766 -0.36176947 -0.024794776 0 0 0 0
0.047521241 -0.36205405 -0.024900591 0 0 0 0
0.053933609 -0.36673567 -0.025165973 0 0 0 0
-0.0039122216 -0.35533607 -0.024912871 0 0 0 0
0.00073476322 -0.35087195 -0.024930792 0 0 0 0
0.036370408 -0.35290653 -0.025017912 0 0 0 0
0.042920034 -0.35776848 -0.025198596 0 0 0 0
-0.00057190348 -0.34931985 -0.024258986 0 0 0 0
0.0047447914 -0.34482393 -0.025047744 0 0 0 0
0.017026817 -0.34044564 -0.024225069 0 0 0 0
0.025325555 -0.34393564 -0.025088873 0 0 0 0
0.031859405 -0.34870464 -0.025280885 0 0 0 0
0.0087057063 -0.33871338 -0.025153387 0 0 0 0
0.014553979 -0.33636209 -0.024951324 0 0 0 0
0.020744324 -0.3393375 -0.025122829 0 0 0 0
0.059595771 -0.4505693 -0.015207728 0 0 0 0
0.064632654 -0.45178157 -0.014806256 0 0 0 0
0.048741437 -0.44099176 -0.01507746 0 0 0 0
0.055038031 -0.44539094 -0.015002677 0 0 0 0
0.066815048 -0.44864225 -0.014916005 0 0 0 0
0.073114097 -0.44378179 -0.015035746 0 0 0 0
0.037813429 -0.43182445 -0.015087285 0 0 0 0
0.04429685 -0.43659279 -0.015018561 0 0 0 0
0.077793151 -0.4374074 -0.015074843 0 0 0 0
0.082128964 -0.43268409 -0.014903191 0 0 0 0
0.026717857 -0.42272288 -0.015117439 0 0 0 0
0.033164199 -0.42754301 -0.015021039 0 0 0 0
0.086820126 -0.42633122 -0.015010335 0 0 0 0
0.091302626 -0.42150977 -0.015112328 0 0 0 0
0.0097666029 -0.41057849 -0.016577873 0 0 0 0
0.015691793 -0.41376406 -0.014984208 0 0 0 0
0.022134965 -0.41845769 -0.015076818 0 0 0 0
0.095896542 -0.41513357 -0.014986779 0 0 0 0
0.10073035 -0.41054344 -0.014984522 0 0 0 0
-0.0013118221 -0.40085936 -0.014460023 0 0 0 0
0.0049324441 -0.4049879 -0.015162566 0 0 0 0
0.01112227 -0.40915215 -0.015762093 0 0 0 0
0.097222202 -0.40275779 -0.014976202 0 0 0 0
0.10159372 -0.40667939 -0.015084544 0 0 0 0
-0.011973789 -0.39171192 -0.014945524 0 0 0 0
-0.0055434075 -0.39635736 -0.014971522 0 0 0 0
9.8622462e-05 -0.39961192 -0.016631668 0 0 0 0
0.086014561 -0.39328995 -0.014939386 0 0 0 0
0.092556126 -0.39816222 -0.014952544 0 0 0 0
-0.022722567 -0.38259929 -0.015043473 0 0 0 0
-0.016571296 -0.38738444 -0.015113241 0 0 0 0
0.069101878 -0.38066652 -0.013997459 0 0 0 0
0.075089402 -0.38438997 -0.014985334 0 0 0 0
0.081496306 -0.38894007 -0.015278508 0 0 0 0
-0.021804534 -0.37772229 -0.015021095 0 0 0 0
-0.017568337 -0.372989 -0.015173149 0 0 0 0
0.05827219 -0.37131169 -0.014919833 0 0 0 0
0.064484693 -0.37572089 -0.015037862 0 0 0 0
0.070518829 -0.37946555 -0.015683252 0 0 0 0
-0.012658591 -0.36645243 -0.014969498 0 0 0 0
-0.008475624 -0.36187008 -0.015014752 0 0 0 0
0.047350857 -0.36223075 -0.015015434 0 0 0 0
0.053790547 -0.36698756 -0.015187736 0 0 0 0
-0.0037117784 -0.35551494 -0.014928849 0 0 0 0
0.00076055992 -0.35123622 -0.014841208 0 0 0 0
0.036082584 -0.35310763 -0.015088666 0 0 0 0
0.042498972 -0.35784379 -0.015055607 0 0 0 0
-0.0004467348 -0.34950036 -0.01527401 0 0 0 0
0.0048225424 -0.3450473 -0.014967408 0 0 0 0
0.01780596 -0.34056494 -0.01443718 0 0 0 0
0.025264444 -0.34425652 -0.015038684 0 0 0 0
0.031678323 -0.34882569 -0.015187363 0 0 0 0
0.0089170309 -0.33893386 -0.015306297 0 0 0 0
0.014382014 -0.33666235 -0.015071079 0 0 0 0
0.020605512 -0.33939439 -0.01531224 0 0 0 0
0.059420481 -0.45069003 -0.0051490343 0 0 0 0
0.064600982 -0.45188028 -0.00485243 0 0 0 0
0.048524499 -0.44118935 -0.0050735981 0 0 0 0
0.054848615 -0.44558609 -0.0051398873 0 0 0 0
0.066863589 -0.44881403 -0.0053738495 0 0 0 0
0.07319472 -0.44406143 -0.0050957599 0 0 0 0
0.037532251 -0.43192482 -0.0050379164 0 0 0 0
0.044073112 -0.43679613 -0.0049581574 0 0 0 0
0.078006886 -0.43747452 -0.0050210129 0 0 0 0
0.08225216 -0.43296334 -0.0051391996 0 0 0 0
0.026478834 -0.42293355 -0.0050440826 0 0 0 0
0.03287185 -0.4277285 -0.0054228627 0 0 0 0
0.087066248 -0.42633167 -0.0050648986 0 0 0 0
0.091463231 -0.42171553 -0.0050590732 0 0 0 0
0.0089922752 -0.41042876 -0.0049481741 0 0 0 0
0.015543937 -0.41404101 -0.005160966 0 0 0 0
0.022084024 -0.41883495 -0.0050135348 0 0 0 0
0.096158199 -0.41518757 -0.0051254379 0 0 0 0
0.10108989 -0.4107846 -0.005050547 0 0 0 0
-0.0013657534 -0.40102917 -0.004858532 0 0 0 0
0.004879415 -0.40523222 -0.0052385191 0 0 0 0
0.010833726 -0.40910771 -0.0052809143 0 0 0 0
0.096791171 -0.40257353 -0.0048367358 0 0 0 0
0.10158158 -0.40690577 -0.0050275065 0 0 0 0
-0.012304378 -0.39178881 -0.0048599998 0 0 0 0
-0.0057117688 -0.39663807 -0.0050781895 0 0 0 0
0.079633445 -0.39050657 -0.004675955 0 0 0 0
0.085830308 -0.39345199 -0.0049947803 0 0 0 0
0.092242852 -0.398276 -0.0051201722 0 0 0 0
-0.022805618 -0.3827402 -0.0050633848 0 0 0 0
-0.016930128 -0.38746843 -0.0050113634 0 0 0 0
0.069001831 -0.38082734 -0.0046326057 0 0 0 0
0.075156659 -0.38483036 -0.0050202478 0 0 0 0
0.081098087 -0.38902918 -0.0054458734 0 0 0 0
-0.021726482 -0.37788472 -0.0051279743 0 0 0 0
-0.017466759 -0.37315458 -0.0052398881 0 0 0 0
0.057928566 -0.37138212 -0.0049703727 0 0 0 0
0.064595386 -0.3761445 -0.00516816 0 0 0 0
0.070382632 -0.37955505 -0.0072681406 0 0 0 0
-0.012627549 -0.36682099 -0.0050723166 0 0 0 0
-0.0083237588 -0.36204305 -0.0051671872 0 0 0 0
0.047031093 -0.36237732 -0.0051610949 0 0 0 0
0.053320713 -0.36699635 -0.0052576819 0 0 0 0
-0.0035296103 -0.35555491 -0.0050945347 0 0 0 0
0.00092360203 -0.35115683 -0.0050279391 0 0 0 0
0.029809125 -0.35002762 -0.0030638594 0 0 0 0
0.035819545 -0.35327411 -0.0053065973 0 0 0 0
0.042247944 -0.35800958 -0.0050660209 0 0 0 0
-0.00024870574 -0.34961578 -0.0061819898 0 0 0 0
0.0051370356 -0.34496683 -0.0050860262 0 0 0 0
0.017337292 -0.34061241 -0.0049310336 0 0 0 0
0.025256598 -0.34463331 -0.004991401 0 0 0 0
0.031509269 -0.34900087 -0.0049311351 0 0 0 0
0.009025746 -0.33897242 -0.0051245745 0 0 0 0
0.014391595 -0.33693928 -0.004974477 0 0 0 0
0.020443162 -0.33946189 -0.0047303461 0 0 0 0
0.059299983 -0.45076272 0.0050977082 0 0 0 0
0.064599015 -0.45214552 0.0049785767 0 0 0 0
0.070417508 -0.45022658 0.0092869801 0 0 0 0
0.048347887 -0.44132131 0.0053506051 0 0 0 0
0.054718394 -0.44590843 0.0049619037 0 0 0 0
0.067978807 -0.44896543 0.0045498926 0 0 0 0
0.073335275 -0.44429982 0.0050208238 0 0 0 0
0.03728839 -0.4321894 0.0051261573 0 0 0 0
0.043724991 -0.43694621 0.0049772044 0 0 0 0
0.078073695 -0.43781388 0.0048558083 0 0 0 0
0.082475036 -0.43299231 0.005064351 0 0 0 0
0.026134446 -0.42307743 0.0046499008 0 0 0 0
0.032509916 -0.42777875 0.0045655752 0 0 0 0
0.087263539 -0.42650846 0.0049468889 0 0 0 0
0.091645703 -0.42188826 0.004891926 0 0 0 0
0.0093090795 -0.41042766 0.0048625213 0 0 0 0
0.015344437 -0.41425025 0.0047529549 0 0 0 0
0.021586845 -0.4187429 0.0050728065 0 0 0 0
0.096287951 -0.41535753 0.0050020101 0 0 0 0
0.10092733 -0.41101557 0.0049322797 0 0 0 0
-0.0014898988 -0.40112939 0.0052071931 0 0 0 0
0.0047345795 -0.40557349 0.0048471191 0 0 0 0
0.010769382 -0.40942764 0.0043262267 0 0 0 0
0.096566945 -0.40267611 0.0049897986 0 0 0 0
0.10143731 -0.40716401 0.0050279638 0 0 0 0
-0.012327112 -0.39211431 0.0051634884 0 0 0 0
-0.0060139997 -0.39678845 0.0049253819 0 0 0 0
0.079027928 -0.39019307 0.0059430744 0 0 0 0
0.085651949 -0.39376041 0.0049153594 0 0 0 0
0.092022091 -0.398563 0.0050676558 0 0 0 0
-0.022814726 -0.38289151 0.0048916936 0 0 0 0
-0.017180691 -0.38770503 0.0049928017 0 0 0 0
0.068843305 -0.38102269 0.0050343904 0 0 0 0
0.074856609 -0.38497561 0.0048090597 0 0 0 0
0.080946781 -0.38906294 0.0044915862 0 0 0 0
-0.021513892 -0.37803859 0.004802126 0 0 0 0
-0.017269041 -0.37331969 0.0049757911 0 0 0 0
0.05804038 -0.37166435 0.0048850039 0 0 0 0
0.064411871 -0.3764202 0.004681427 0 0 0 0
0.070314117 -0.37999165 0.0027333871 0 0 0 0
-0.012442144 -0.36690006 0.0048350273 0 0 0 0
-0.0082265679 -0.36235261 0.0052202051 0 0 0 0
0.046825353 -0.36255914 0.0049009589 0 0 0 0
0.053220991 -0.36734411 0.0047956854 0 0 0 0
-0.0034078821 -0.35586834 0.0048750932 0 0 0 0
0.0010073975 -0.35128522 0.0053791925 0 0 0 0
0.029646995 -0.35030448 0.0056875637 0 0 0 0
0.035591695 -0.35348678 0.0048370375 0 0 0 0
0.042191584 -0.35835963 0.0046202047 0 0 0 0
-0.0001667114 -0.34979475 0.0046005715 0 0 0 0
0.0052835047 -0.34514666 0.004902673 0 0 0 0
0.01677797 -0.34090087 0.0052809198 0 0 0 0
0.025116717 -0.34488416 0.0048843408 0 0 0 0
0.03130408 -0.34913468 0.0045282952 0 0 0 0
0.0092463978 -0.33904919 0.0042597102 0 0 0 0
0.014217552 -0.33717456 0.0049823667 0 0 0 0
0.020387119 -0.33984369 0.0040614121 0 0 0 0
0.058717709 -0.45068106 0.016079834 0 0 0 0
0.064608417 -0.45240101 0.015032603 0 0 0 0
0.070176885 -0.45053703 0.016878292 0 0 0 0
0.048232 -0.44160229 0.015303796 0 0 0 0
0.05464587 -0.44620386 0.014952126 0 0 0 0
0.068115219 -0.44895041 0.014921634 0 0 0 0
0.07349512 -0.44441947 0.015068844 0 0 0 0
0.036920134 -0.43227455 0.015229406 0 0 0 0
0.043519374 -0.43714806 0.015041938 0 0 0 0
0.078151405 -0.43803179 0.014769562 0 0 0 0
0.082500905 -0.43326393 0.015232261 0 0 0 0
0.019604556 -0.42009005 0.018277127 0 0 0 0
0.0259146 -0.42334002 0.014832102 0 0 0 0
0.032337599 -0.42802954 0.014681845 0 0 0 0
0.087459013 -0.42660174 0.014786534 0 0 0 0
0.091659971 -0.42199802 0.01508054 0 0 0 0
0.0088347187 -0.41048741 0.014738196 0 0 0 0
0.01499836 -0.4144353 0.014937126 0 0 0 0
0.021512065 -0.41892129 0.014741421 0 0 0 0
0.096505724 -0.41549641 0.015044194 0 0 0 0
0.10102811 -0.41104448 0.015131232 0 0 0 0
-0.0015504919 -0.40139222 0.015341606 0 0 0 0
0.0047111786 -0.40591666 0.014831332 0 0 0 0
0.010544004 -0.40938738 0.014549599 0 0 0 0
0.09655524 -0.40314138 0.015050678 0 0 0 0
0.10177483 -0.40757003 0.014834278 0 0 0 0
-0.01268157 -0.39219719 0.014875079 0 0 0 0
-0.0061777285 -0.39703107 0.015073659 0 0 0 0
0.079088256 -0.39033714 0.014723117 0 0 0 0
0.085446224 -0.39397609 0.014957324 0 0 0 0
0.091824971 -0.39879107 0.014954206 0 0 0 0
-0.022726085 -0.3832553 0.014955168 0 0 0 0
-0.017448189 -0.3879064 0.014856216 0 0 0 0
0.068747036 -0.38105038 0.014878395 0 0 0 0
0.074900381 -0.38538101 0.014881083 0 0 0 0
0.080763586 -0.38920972 0.01493281 0 0 0 0
-0.021564078 -0.37833202 0.015107877 0 0 0 0
-0.017211204 -0.37362915 0.015108491 0 0 0 0
0.057710458 -0.37180009 0.014775855 0 0 0 0
0.064145066 -0.37663236 0.014758647 0 0 0 0
0.070227712 -0.37997669 0.011353013 0 0 0 0
-0.01227404 -0.36705655 0.015034382 0 0 0 0
-0.0080136005 -0.36246738 0.015157839 0 0 0 0
0.046673134 -0.36282852 0.014952909 0 0 0 0
0.053073097 -0.3675842 0.014607847 0 0 0 0
-0.0033397668 -0.35606068 0.014987228 0 0 0 0
0.0010353763 -0.35149306 0.015418652 0 0 0 0
0.02901344 -0.3503294 0.016196299 0 0 0 0
0.035344854 -0.35369602 0.014985118 0 0 0 0
0.041752588 -0.35829613 0.014793695 0 0 0 0
0.0055478178 -0.34515083 0.014987461 0 0 0 0
0.016862836 -0.34109607 0.015470907 0 0 0 0
0.025041673 -0.3452723 0.01502923 0 0 0 0
0.030825933 -0.34892496 0.014445755 0 0 0 0
0.0092863226 -0.33918658 0.015073789 0 0 0 0
0.014311614 -0.33747667 0.014940235 0 0 0 0
0.020375537 -0.33984521 0.014208122 0 0 0 0
0.058846544 -0.4509176 0.025420036 0 0 0 0
0.06482254 -0.4526937 0.025042186 0 0 0 0
0.070468545 -0.45028973 0.027022498 0 0 0 0
0.048031598 -0.44167101 0.025223311 0 0 0 0
0.054474704 -0.44642809 0.024899898 0 0 0 0
0.068943202 -0.44896799 0.024570992 0 0 0 0
0.073809206 -0.44434142 0.025068138 0 0 0 0
0.036667336 -0.43239135 0.025144327 0 0 0 0
0.043196972 -0.43729404 0.025070323 0 0 0 0
0.078509048 -0.43794435 0.024864998 0 0 0 0
0.082735494 -0.43332559 0.025203377 0 0 0 0
0.019597279 -0.42040205 0.027106145 0 0 0 0
0.025794843 -0.42358121 0.025077287 0 0 0 0
0.032071281 -0.42818177 0.024768451 0 0 0 0
0.087566219 -0.42691332 0.024896368 0 0 0 0
0.091787256 -0.42211646 0.024967384 0 0 0 0
0.0088545121 -0.41071701 0.025153724 0 0 0 0
0.014898804 -0.41469353 0.025032995 0 0 0 0
0.021287989 -0.41906875 0.024686499 0 0 0 0
0.096758306 -0.4155477 0.024962861 0 0 0 0
0.10108331 -0.41116878 0.025454294 0 0 0 0
-0.0017904959 -0.40151542 0.025387008 0 0 0 0
0.0045732735 -0.40618095 0.024889404 0 0 0 0
0.010460279 -0.4096702 0.024777874 0 0 0 0
0.096202165 -0.40317225 0.025145886 0 0 0 0
0.10176487 -0.40777302 0.024994839 0 0 0 0
-0.012880684 -0.39244369 0.024905846 0 0 0 0
-0.0065201069 -0.39720485 0.025046483 0 0 0 0
0.079235367 -0.39068761 0.02534177 0 0 0 0
0.085311793 -0.39430037 0.024987247 0 0 0 0
0.091764227 -0.39887029 0.024584271 0 0 0 0
-0.02274292 -0.38341987 0.024956381 0 0 0 0
-0.017637474 -0.38807762 0.024865504 0 0 0 0
0.068551369 -0.38132343 0.024889238 0 0 0 0
0.074792609 -0.38565588 0.024910264 0 0 0 0
0.080880396 -0.38936448 0.024531186 0 0 0 0
-0.02128512 -0.37828463 0.024777688 0 0 0 0
-0.016859839 -0.37366217 0.025195573 0 0 0 0
0.057537094 -0.37208456 0.024702199 0 0 0 0
0.063951485 -0.37683907 0.024730334 0 0 0 0
-0.012135595 -0.36710149 0.024784986 0 0 0 0
-0.0077187149 -0.36249343 0.025067952 0 0 0 0
0.046321981 -0.3629632 0.024877733 0 0 0 0
0.05296636 -0.36792386 0.024789305 0 0 0 0
-0.0031717219 -0.35616252 0.024877563 0 0 0 0
0.0012089664 -0.35154423 0.025362553 0 0 0 0
0.02930076 -0.35026893 0.025455259 0 0 0 0
0.035304483 -0.35401401 0.025084592 0 0 0 0
0.041741494 -0.35862812 0.024816802 0 0 0 0
0.0057472461 -0.34527275 0.02496317 0 0 0 0
0.016768033 -0.34108505 0.025514144 0 0 0 0
0.024919603 -0.34551552 0.025051631 0 0 0 0
0.030655134 -0.34937757 0.024568062 0 0 0 0
0.0094061466 -0.33928853 0.024507413 0 0 0 0
0.013998541 -0.33781141 0.024922291 0 0 0 0
0.020106383 -0.33983427 0.029691104 0 0 0 0
0.05870796 -0.45106253 0.03517136 0 0 0 0
0.065023698 -0.45298538 0.035041418 0 0 0 0
0.070461154 -0.4505097 0.035694845 0 0 0 0
0.047651257 -0.44185638 0.035104338 0 0 0 0
0.054188319 -0.44657919 0.034960404 0 0 0 0
0.069284543 -0.44902149 0.034746472 0 0 0 0
0.073895186 -0.44464487 0.034953136 0 0 0 0
0.036592796 -0.43280131 0.035165071 0 0 0 0
0.042992391 -0.43749651 0.034944087 0 0 0 0
0.07857506 -0.4381026 0.035023972 0 0 0 0
0.082799315 -0.433689 0.035071176 0 0 0 0
0.019489072 -0.42051786 0.036941707 0 0 0 0
0.025444211 -0.42370576 0.035101596 0 0 0 0
0.032084525 -0.42850032 0.03480877 0 0 0 0
0.087631725 -0.42708039 0.034916896 0 0 0 0
0.091983087 -0.4223879 0.034859266 0 0 0 0
0.0088382242 -0.41089097 0.035134163 0 0 0 0
0.014952781 -0.41506702 0.035148349 0 0 0 0
0.02116028 -0.4191837 0.034380056 0 0 0 0
0.096665636 -0.4160057 0.035014264 0 0 0 0
0.10104511 -0.41124257 0.035297107 0 0 0 0
-0.0018553934 -0.40189999 0.035365086 0 0 0 0
0.0043825544 -0.40640232 0.035004474 0 0 0 0
0.010671893 -0.40981522 0.031611644 0 0 0 0
0.09593451 -0.40335453 0.034965862 0 0 0 0
0.10169862 -0.40790057 0.03495523 0 0 0 0
-0.013110337 -0.39264643 0.035020042 0 0 0 0
-0.0065425769 -0.39757165 0.034886662 0 0 0 0
0.079174675 -0.39069894 0.035476938 0 0 0 0
0.085148096 -0.39454633 0.035032604 0 0 0 0
0.091246203 -0.39888826 0.034578592 0 0 0 0
-0.022685589 -0.383697 0.035041783 0 0 0 0
-0.017800607 -0.38831159 0.034685727 0 0 0 0
0.068323247 -0.38141918 0.034858353 0 0 0 0
0.074666433 -0.38594142 0.034988705 0 0 0 0
0.080672473 -0.38938272 0.033809975 0 0 0 0
-0.021208132 -0.37852314 0.034856852 0 0 0 0
-0.016813451 -0.37392396 0.034969028 0 0 0 0
0.057173606 -0.37215346 0.034878246 0 0 0 0
0.063771747 -0.37713459 0.03484574 0 0 0 0
-0.012030731 -0.3674649 0.034973931 0 0 0 0
-0.0078361109 -0.36290014 0.034903768 0 0 0 0
0.046121061 -0.36319762 0.035010595 0 0 0 0
0.052626029 -0.36801085 0.034973279 0 0 0 0
-0.0030462795 -0.35644448 0.034912992 0 0 0 0
0.0013994516 -0.35170001 0.035216093 0 0 0 0
0.029117605 -0.350521 0.035322163 0 0 0 0
0.035350509 -0.35441309 0.035066996 0 0 0 0
0.04156664 -0.35889006 0.035014648 0 0 0 0
0.0058943923 -0.3454147 0.035040237 0 0 0 0
0.016390748 -0.34127378 0.035120685 0 0 0 0
0.024836538 -0.34584522 0.034948073 0 0 0 0
0.030613968 -0.34930116 0.035743043 0 0 0 0
0.0094647733 -0.33957154 0.034184366 0 0 0 0
0.013943383 -0.33798215 0.034871805 0 0 0 0
0.0585315 -0.45125839 0.045002036 0 0 0 0
0.065001108 -0.45318997 0.045134343 0 0 0 0
0.070656061 -0.45052752 0.045356102 0 0 0 0
0.047434185 -0.44198778 0.045076024 0 0 0 0
0.053996928 -0.44691905 0.044778071 0 0 0 0
0.069309868 -0.44925389 0.044511959 0 0 0 0
0.074276336 -0.44452843 0.044919945 0 0 0 0
0.036289427 -0.43295771 0.045124926 0 0 0 0
0.042752225 -0.43768337 0.044857007 0 0 0 0
0.078738891 -0.4382996 0.044822298 0 0 0 0
0.083034627 -0.43374979 0.045196019 0 0 0 0
0.019325254 -0.42051762 0.046163883 0 0 0 0
0.02527046 -0.42393038 0.04521608 0 0 0 0
0.031837005 -0.42860788 0.044616163 0 0 0 0
0.087754346 -0.42732739 0.044849195 0 0 0 0
0.09206339 -0.42262203 0.045070846 0 0 0 0
0.0087333666 -0.41118416 0.04487323 0 0 0 0
0.014823706 -0.4153631 0.04509053 0 0 0 0
0.020919085 -0.41921815 0.044498578 0 0 0 0
0.096928224 -0.41606435 0.045025256 0 0 0 0
0.10121682 -0.41135946 0.045142896 0 0 0 0
-0.0022873757 -0.40188819 0.045022551 0 0 0 0
0.0042949882 -0.40674841 0.04505685 0 0 0 0
0.010031272 -0.40997502 0.041911118 0 0 0 0
0.089341387 -0.40028176 0.044727039 0 0 0 0
0.095676236 -0.40353838 0.044995122 0 0 0 0
0.10173824 -0.40812612 0.044988703 0 0 0 0
-0.013529405 -0.39269438 0.045164231 0 0 0 0
-0.0071123661 -0.39743313 0.044778891 0 0 0 0
0.078911074 -0.39082304 0.044819351 0 0 0 0
0.085155241 -0.39495245 0.045007993 0 0 0 0
0.091178223 -0.39906195 0.04434859 0 0 0 0
-0.022699006 -0.38383704 0.045095067 0 0 0 0
-0.018108549 -0.38841978 0.044767231 0 0 0 0
0.068040133 -0.38154393 0.044948269 0 0 0 0
0.074505471 -0.38619885 0.045080341 0 0 0 0
0.080392212 -0.38933337 0.043739401 0 0 0 0
-0.021050626 -0.37865555 0.044688005 0 0 0 0
-0.016581099 -0.37400645 0.04503911 0 0 0 0
0.056990813 -0.372475 0.04484608 0 0 0 0
0.063565366 -0.37729418 0.044945505 0 0 0 0
-0.011957968 -0.36767256 0.044816818 0 0 0 0
-0.0076262001 -0.36300308 0.045091536 0 0 0 0
0.045642406 -0.36323914 0.04508483 0 0 0 0
0.052205436 -0.36803362 0.045174036 0 0 0 0
-0.002861371 -0.35653645 0.044970382 0 0 0 0
0.0014760117 -0.35192996 0.045230947 0 0 0 0
0.029037651 -0.35065189 0.04558092 0 0 0 0
0.035218529 -0.35470721 0.045024615 0 0 0 0
0.041480601 -0.35894394 0.045109827 0 0 0 0
0.0060838317 -0.34555921 0.045021936 0 0 0 0
0.01637492 -0.34137374 0.04510266 0 0 0 0
0.024600729 -0.34602001 0.045036286 0 0 0 0
0.030766755 -0.34941947 0.042938687 0 0 0 0
0.0097054075 -0.33945099 0.043620605 0 0 0 0
0.013698906 -0.33819824 0.044815723 0 0 0 0
0.058241256 -0.45133835 0.055017155 0 0 0 0
0.064941406 -0.45359328 0.055149119 0 0 0 0
0.070623867 -0.45082071 0.055096544 0 0 0 0
0.047258176 -0.44221243 0.055042628 0 0 0 0
0.053640794 -0.44694594 0.054700166 0 0 0 0
0.069388211 -0.44922221 0.05495574 0 0 0 0
0.074197292 -0.44495097 0.055045206 0 0 0 0
0.036073394 -0.43312606 0.055054121 0 0 0 0
0.042568963 -0.4379456 0.054925416 0 0 0 0
0.078768775 -0.4385556 0.054730762 0 0 0 0
0.083175465 -0.43393403 0.055174131 0 0 0 0
0.019254848 -0.42072967 0.055162217 0 0 0 0
0.02514175 -0.42419857 0.055088814 0 0 0 0
0.031605031 -0.42880192 0.054859214 0 0 0 0
0.087950014 -0.42748019 0.054899376 0 0 0 0
0.092211701 -0.42271197 0.055019151 0 0 0 0
0.0085558081 -0.41123861 0.055141099 0 0 0 0
0.014806759 -0.41574398 0.055060949 0 0 0 0
0.020608807 -0.41911021 0.054371767 0 0 0 0
0.097073525 -0.41623011 0.055062328 0 0 0 0
0.10137822 -0.41169482 0.054798353 0 0 0 0
-0.0025787284 -0.40208241 0.05505389 0 0 0 0
0.0038800507 -0.40681389 0.054853059 0 0 0 0
0.089257315 -0.40027395 0.055939652 0 0 0 0
0.095561713 -0.40379971 0.055130232 0 0 0 0
0.101491 -0.40837342 0.05508576 0 0 0 0
-0.01353595 -0.39311004 0.055161625 0 0 0 0
-0.0071588424 -0.39775699 0.054850888 0 0 0 0
0.078731902 -0.39092985 0.05495302 0 0 0 0
0.085046411 -0.39525595 0.055053536 0 0 0 0
0.09096206 -0.39909479 0.054538429 0 0 0 0
-0.022636581 -0.38405943 0.055108685 0 0 0 0
-0.018231072 -0.38851285 0.05507753 0 0 0 0
0.067879044 -0.38170743 0.055238958 0 0 0 0
0.074454948 -0.38657999 0.054919437 0 0 0 0
0.08071325 -0.38987669 0.053454529 0 0 0 0
-0.020920781 -0.37867135 0.054478079 0 0 0 0
-0.016484378 -0.37424642 0.055088077 0 0 0 0
0.056712281 -0.37259254 0.054975607 0 0 0 0
0.063129812 -0.37733757 0.054856442 0 0 0 0
-0.011708315 -0.36771807 0.054971594 0 0 0 0
-0.0073135947 -0.36300412 0.055070814 0 0 0 0
0.039750367 -0.36031687 0.054922372 0 0 0 0
0.045684908 -0.3636744 0.055085592 0 0 0 0
0.052109886 -0.3683534 0.05496712 0 0 0 0
-0.0026238791 -0.35657415 0.055067476 0 0 0 0
0.001626898 -0.35214436 0.055094387 0 0 0 0
0.029049151 -0.35091248 0.055333827 0 0 0 0
0.03507901 -0.35495907 0.054987028 0 0 0 0
0.04132089 -0.35908684 0.054818995 0 0 0 0
0.0064162891 -0.34551373 0.05502174 0 0 0 0
0.016099282 -0.34152716 0.055274997 0 0 0 0
0.024469759 -0.34632808 0.05498644 0 0 0 0
0.030664489 -0.34969923 0.055605765 0 0 0 0
0.0096037257 -0.33983725 0.051956236 0 0 0 0
0.013660865 -0.33849311 0.05495666 0 0 0 0
0.058001947 -0.45154706 0.065245427 0 0 0 0
0.065132983 -0.45391855 0.065037377 0 0 0 0
0.070959985 -0.45084095 0.064806797 0 0 0 0
0.04692468 -0.44237196 0.065157682 0 0 0 0
0.053434044 -0.44723046 0.064899534 0 0 0 0
0.069587804 -0.449543 0.065157279 0 0 0 0
0.074548885 -0.44489142 0.065034464 0 0 0 0
0.035864126 -0.4333469 0.065017693 0 0 0 0
0.042365719 -0.43818313 0.064787872 0 0 0 0
0.078923613 -0.43875539 0.06503927 0 0 0 0
0.083252586 -0.43413079 0.064980678 0 0 0 0
0.019268662 -0.42078599 0.065496802 0 0 0 0
0.025160177 -0.42459267 0.065067813 0 0 0 0
0.031571943 -0.42905846 0.064965487 0 0 0 0
0.088169634 -0.42762575 0.064987116 0 0 0 0
0.092357576 -0.42295611 0.065107711 0 0 0 0
0.0082041109 -0.41129881 0.06527029 0 0 0 0
0.014538536 -0.41590148 0.064875931 0 0 0 0
0.020874627 -0.41958457 0.064517453 0 0 0 0
0.09713389 -0.41647798 0.064991452 0 0 0 0
0.1014264 -0.4119826 0.065062322 0 0 0 0
-0.0029082282 -0.40222555 0.065069556 0 0 0 0
0.0034685228 -0.4068706 0.064980157 0 0 0 0
0.089386858 -0.4004564 0.064770311 0 0 0 0
0.095265597 -0.40400982 0.065054081 0 0 0 0
0.10152587 -0.40853727 0.06479919 0 0 0 0
-0.013873414 -0.39324754 0.065116189 0 0 0 0
-0.0072886939 -0.39806154 0.064730778 0 0 0 0
0.078672677 -0.3911323 0.064997219 0 0 0 0
0.084902026 -0.39551944 0.065103002 0 0 0 0
0.09086249 -0.39902854 0.065201081 0 0 0 0
-0.022639295 -0.38434222 0.065208003 0 0 0 0
-0.018435927 -0.38856772 0.064909443 0 0 0 0
0.06782598 -0.3819291 0.065009296 0 0 0 0
0.074310124 -0.3868618 0.065035865 0 0 0 0
0.08013469 -0.38938314 0.063673235 0 0 0 0
-0.020759694 -0.37882084 0.064470612 0 0 0 0
-0.016260033 -0.37434995 0.06504643 0 0 0 0
0.05644181 -0.37279096 0.065105863 0 0 0 0
0.062842675 -0.3775785 0.065022014 0 0 0 0
-0.011718561 -0.36802188 0.064883754 0 0 0 0
-0.0073061609 -0.36334467 0.065108672 0 0 0 0
0.039662659 -0.36071214 0.064141043 0 0 0 0
0.045362927 -0.36378899 0.065055348 0 0 0 0
0.051808979 -0.36848226 0.064928688 0 0 0 0
-0.0026164802 -0.35694334 0.064913049 0 0 0 0
0.0017252647 -0.35229346 0.065356657 0 0 0 0
0.028837381 -0.35100892 0.065460585 0 0 0 0
0.035121307 -0.35541505 0.064930983 0 0 0 0
0.040952362 -0.35907769 0.064920023 0 0 0 0
0.0064886454 -0.34575072 0.064947523 0 0 0 0
0.015786683 -0.34166205 0.065168582 0 0 0 0
0.024173725 -0.34642079 0.064910278 0 0 0 0
0.030226855 -0.34962162 0.063326061 0 0 0 0
0.0098086847 -0.33988804 0.063184001 0 0 0 0
0.013496657 -0.33856362 0.064920597 0 0 0 0
0.057951652 -0.45181757 0.075100839 0 0 0 0
0.06525068 -0.45429605 0.074990422 0 0 0 0
0.071116328 -0.45090216 0.07487572 0 0 0 0
0.046605702 -0.44256717 0.074956633 0 0 0 0
0.053238712 -0.44742402 0.075021118 0 0 0 0
0.06975539 -0.44963297 0.075416595 0 0 0 0
0.074853688 -0.44485226 0.074947879 0 0 0 0
0.080417886 -0.44031033 0.074301511 0 0 0 0
0.029838501 -0.43016839 0.075659573 0 0 0 0
0.035622537 -0.43356439 0.074896574 0 0 0 0
0.042098217 -0.4382847 0.075034536 0 0 0 0
0.079131566 -0.43865174 0.074950591 0 0 0 0
0.083500095 -0.43427154 0.074935831 0 0 0 0
0.019085297 -0.42093399 0.075244032 0 0 0 0
0.025083367 -0.42495549 0.075092055 0 0 0 0
0.031042084 -0.42893577 0.074876077 0 0 0 0
0.08826644 -0.42779765 0.074968025 0 0 0 0
0.092624761 -0.42300859 0.074975736 0 0 0 0
0.0081018824 -0.41155893 0.075254634 0 0 0 0
0.014647618 -0.41638994 0.074893333 0 0 0 0
0.020434644 -0.41916165 0.074289583 0 0 0 0
0.097310059 -0.41672581 0.074949332 0 0 0 0
0.10149503 -0.41204855 0.07510782 0 0 0 0
-0.0029754178 -0.40251499 0.075146504 0 0 0 0
0.0034102383 -0.40726513 0.074984379 0 0 0 0
0.089051783 -0.40050918 0.075571157 0 0 0 0
0.09517885 -0.40432993 0.074885353 0 0 0 0
0.10144736 -0.40877244 0.075156033 0 0 0 0
-0.014166112 -0.39339706 0.07504607 0 0 0 0
-0.0077526481 -0.39812246 0.074982211 0 0 0 0
0.078378804 -0.3912006 0.075541951 0 0 0 0
0.084785469 -0.39580059 0.074932791 0 0 0 0
0.090906642 -0.39935586 0.074545324 0 0 0 0
-0.022499105 -0.38460776 0.07503894 0 0 0 0
-0.01863429 -0.38846493 0.074741028 0 0 0 0
0.06741868 -0.38212925 0.075136915 0 0 0 0
0.073947445 -0.3869479 0.075021669 0 0 0 0
-0.02062371 -0.37901413 0.074998833 0 0 0 0
-0.016122546 -0.37454012 0.075007938 0 0 0 0
0.056171872 -0.37293398 0.07498607 0 0 0 0
0.062688537 -0.37776801 0.07487227 0 0 0 0
-0.011407503 -0.36796814 0.074947514 0 0 0 0
-0.0071436469 -0.36351606 0.075118475 0 0 0 0
0.039358202 -0.36044499 0.075374775 0 0 0 0
0.045199223 -0.36402577 0.074899338 0 0 0 0
0.051533584 -0.3687022 0.074976772 0 0 0 0
-0.0022693356 -0.35696316 0.074845873 0 0 0 0
0.0020229488 -0.35231081 0.075103715 0 0 0 0
0.028753977 -0.35121113 0.075161897 0 0 0 0
0.034900796 -0.3556143 0.075063743 0 0 0 0
0.040932287 -0.35932237 0.074647091 0 0 0 0
0.0066884947 -0.34589818 0.074932285 0 0 0 0
0.015562022 -0.3417803 0.075023107 0 0 0 0
0.023943827 -0.34667119 0.075004287 0 0 0 0
0.03013657 -0.34984958 0.075200826 0 0 0 0
0.013291287 -0.33876228 0.0750992 0 0 0 0
0.057634071 -0.45189637 0.085178263 0 0 0 0
0.065251924 -0.45463955 0.08482413 0 0 0 0
0.070844099 -0.45132703 0.085135259 0 0 0 0
0.046398114 -0.44272992 0.084927119 0 0 0 0
0.052878201 -0.44754684 0.084921509 0 0 0 0
0.069971569 -0.44972345 0.084535845 0 0 0 0
0.07501965 -0.44500929 0.084964089 0 0 0 0
0.080391742 -0.44056374 0.085190944 0 0 0 0
0.029574759 -0.43038428 0.084874958 0 0 0 0
0.03552106 -0.43386137 0.085016623 0 0 0 0
0.041981932 -0.43854433 0.08514899 0 0 0 0
0.079196237 -0.43891534 0.085213087 0 0 0 0
0.083751999 -0.43434027 0.084992148 0 0 0 0
0.018840382 -0.42099512 0.085313573 0 0 0 0
0.025026387 -0.42524797 0.084990516 0 0 0 0
0.031023024 -0.42933276 0.085061006 0 0 0 0
0.088320538 -0.42805281 0.085015304 0 0 0 0
0.092656948 -0.42328879 0.085038856 0 0 0 0
0.0077522052 -0.41166466 0.0850503 0 0 0 0
0.014327727 -0.41650549 0.084964901 0 0 0 0
0.020583121 -0.4195908 0.081774831 0 0 0 0
0.097471125 -0.41675812 0.084825858 0 0 0 0
0.10158755 -0.41227698 0.085274123 0 0 0 0
-0.0032940824 -0.40262538 0.085103214 0 0 0 0
0.0030859339 -0.40735099 0.084913462 0 0 0 0
0.08909747 -0.40069777 0.085516855 0 0 0 0
0.095039248 -0.40455747 0.084952593 0 0 0 0
0.10137118 -0.40907311 0.084690258 0 0 0 0
-0.014419114 -0.39357165 0.085156597 0 0 0 0
-0.0079716183 -0.39834905 0.084867761 0 0 0 0
0.078086562 -0.39140421 0.085375145 0 0 0 0
0.084516242 -0.39597222 0.084944174 0 0 0 0
0.090515748 -0.39927104 0.084459588 0 0 0 0
-0.022597069 -0.38487327 0.08509592 0 0 0 0
-0.018945631 -0.38759547 0.084935807 0 0 0 0
0.067170389 -0.38228297 0.085127041 0 0 0 0
0.073656633 -0.38712269 0.084987491 0 0 0 0
-0.020681368 -0.37920666 0.084221728 0 0 0 0
-0.015998164 -0.37472153 0.085062675 0 0 0 0
0.049878225 -0.37009311 0.088135056 0 0 0 0
0.056035995 -0.37329322 0.085054845 0 0 0 0
0.062321406 -0.37784538 0.084847607 0 0 0 0
-0.011432915 -0.36836678 0.08493685 0 0 0 0
-0.0069622369 -0.36363807 0.084986106 0 0 0 0
0.038957048 -0.36043191 0.086247176 0 0 0 0
0.04517632 -0.3643994 0.084943302 0 0 0 0
0.051588483 -0.3689324 0.084784597 0 0 0 0
-0.0022419333 -0.35723016 0.084983841 0 0 0 0
0.0019625132 -0.35266995 0.084923245 0 0 0 0
0.028414903 -0.35132429 0.085112199 0 0 0 0
0.034764092 -0.35588142 0.085000105 0 0 0 0
0.040892772 -0.35916218 0.083522722 0 0 0 0
0.0068277088 -0.34611952 0.084971122 0 0 0 0
0.015516794 -0.34194937 0.085033447 0 0 0 0
0.023826325 -0.34695798 0.08498659 0 0 0 0
0.013169323 -0.33897763 0.084891506 0 0 0 0
0.05735895 -0.45208359 0.09517394 0 0 0 0
0.065319791 -0.45497936 0.094987899 0 0 0 0
0.070974395 -0.45128465 0.095339224 0 0 0 0
0.046257772 -0.44302198 0.09498778 0 0 0 0
0.052732758 -0.44784948 0.095057458 0 0 0 0
0.07530795 -0.44501418 0.0950104 0 0 0 0
0.080480948 -0.44051576 0.09477216 0 0 0 0
0.029518269 -0.43072474 0.095466383 0 0 0 0
0.035318352 -0.4340755 0.095089309 0 0 0 0
0.041878249 -0.43889669 0.094884351 0 0 0 0
0.079235733 -0.43904135 0.095114887 0 0 0 0
0.083808765 -0.43461683 0.095032297 0 0 0 0
0.018612046 -0.42116195 0.095300041 0 0 0 0
0.024879627 -0.42551559 0.094926164 0 0 0 0
0.030916007 -0.42931649 0.094640799 0 0 0 0
0.08848913 -0.42826688 0.094997503 0 0 0 0
0.092953995 -0.42335588 0.095051609 0 0 0 0
0.0074825734 -0.41185945 0.095017709 0 0 0 0
0.014016145 -0.41665787 0.094889246 0 0 0 0
0.020045638 -0.41932818 0.097020932 0 0 0 0
0.097656943 -0.41687462 0.094984129 0 0 0 0
0.10169686 -0.41215074 0.095054068 0 0 0 0
-0.0035360977 -0.4027909 0.094900966 0 0 0 0
