ply
format ascii 1.0
comment PCL generated
element vertex 380
property float x
property float y
property float z
property float nx
property float ny
property float nz
property float curvature
element face 0
element camera 1
property float view_px
property float view_py
property float view_pz
property float x_axisx
property float x_axisy
property float x_axisz
property float y_axisx
property float y_axisy
property float y_axisz
property float z_axisx
property float z_axisy
property float z_axisz
property float focal
property float scalex
property float scaley
property float centerx
property float centery
property int viewportx
property int viewporty
property float k1
property float k2
end_header
0.21887207 0.026977539 -0.39550781 -0.34325036 -0.10674249 0.93315876 0.19782169
0.22094727 0.028164674 -0.39492187 -0.42018357 -0.040233433 0.90654677 0.19065306
-0.0017916679 0.033666991 -0.39038086 0 0 1 0.0019203918
0.01924642 0.041005451 -0.39233398 0.01904341 0.32452208 0.9456864 0.016229345
0.12935384 0.074442543 -0.39746094 0 0 1 0.00011076692
0.13309734 0.077219643 -0.39697266 -0.097191274 0.022504922 0.99501121 0.00011538086
0.13602702 0.080423988 -0.39648438 0 0 1 0.00011076485
0.11415728 0.11438707 -0.3968865 0.00094060326 -0.19259496 0.98127788 0.0050851726
0.12817383 0.11883545 -0.39453125 0 0 1 0.0022499296
0.1177775 0.12255859 -0.39412436 0.0061339294 -0.1114112 0.99375546 0.0060825483
0.12380836 0.12334043 -0.39371744 1.6217615e-10 -0.047797095 0.99885708 0.0058020079
0.13000488 0.1206665 -0.39453125 0 0 1 0.002242309
0.092346191 0.0094070435 -0.38037109 -0.51858842 -0.16009213 0.8399027 0.0059058033
-0.0047423043 0.015615463 -0.38549805 0 0 1 0
0.089547291 0.016681125 -0.38078961 -0.31297576 0.090972714 0.94539416 0.0032705569
0.090994701 0.016332354 -0.3805106 -0.45702076 0.045711052 0.88828063 0.0027522221
0.026633369 0.025631376 -0.38755968 -0.02007472 -0.0084350575 0.99976295 5.4908127e-16
0.03024292 0.026428223 -0.38745117 0 0 1 4.3575734e-16
0.088535309 0.024785042 -0.3828125 -0.31606367 0.15834272 0.93543112 0.0015132597
0.092365131 0.025642132 -0.38117927 -0.40138304 0.18110584 0.89782649 0.00166114
-0.0040845871 0.039276123 -0.3894043 0.091528706 -0.23215443 0.96836299 0.0012259388
0.089477539 0.030914307 -0.38330078 -0.47131881 0.29652208 0.8306222 0.0015006823
0.095003255 0.031941731 -0.38134766 -0.36407426 0.22605096 0.90352136 0.0013402251
-0.004677909 0.043731689 -0.38842773 0 0 1 0.00027272102
0.09954834 0.049041748 -0.38549805 -0.41210407 -0.10717653 0.90481126 0.0066447267
-0.014144897 0.059509277 -0.38330078 -0.17646457 -0.62866461 0.75739104 0.0025992009
0.09646868 0.056598771 -0.38323799 -0.1751174 -0.41857734 0.8911379 0.0032220935
0.10244412 0.054879647 -0.38279441 -0.099942304 -0.39734563 0.91221046 0.0046868366
-0.015309651 0.061391193 -0.38264975 -0.17646463 -0.62866426 0.75739127 0.010754052
0.088821411 0.063522339 -0.38061523 0.021559848 -0.59651852 0.80230969 0.0013621866
0.094965883 0.062499195 -0.38098788 -0.12247574 -0.39411679 0.9108631 0.0042213141
0.10244315 0.060551234 -0.38037109 -0.02326772 -0.38450488 0.92282969 0.0045902389
-0.0057640076 0.079101562 -0.38037109 0 0 1 0.0016644361
0.01940918 0.072143555 -0.38745117 -0.57054406 0.23625061 0.78655273 0.07152842
0.020614624 0.071533203 -0.38745117 -0.57054305 0.23625314 0.78655273 0.059811715
-0.0034003258 0.080612183 -0.38037109 0.058087923 -0.27738947 0.95899993 0.0025958898
0.00014519691 0.082061768 -0.38037109 0.17006081 -0.1060148 0.97971433 0.0023303928
0.097462974 0.10651652 -0.38761392 -0.25739029 -0.048420914 0.96509361 0.0040797461
0.10101318 0.10379028 -0.38647461 0 0 1 0.0033785335
0.095466614 0.11376572 -0.38722229 -0.28371888 -0.28821534 0.91456854 0.0074688513
0.093524642 0.12224872 -0.38044623 -0.2917386 -0.40589744 0.86610383 0.0089446316
0.116038 -0.011229197 -0.37231445 -0.058445234 -0.025651313 0.99796093 0.0064179203
0.1185791 -0.0088195801 -0.37153322 -0.50090158 -0.097617455 0.8599816 0.0053318893
0.098587036 0.0072627068 -0.37667847 -0.43635634 -0.27075487 0.85807049 0.0028294458
0.10468227 0.0072751725 -0.37497211 -0.05999909 -0.15599233 0.98593438 0.012592626
0.11180115 0.0078258514 -0.37524414 0.016135344 -0.085209504 0.99623233 0.0021005799
0.095620118 0.015505676 -0.3775537 -0.54159325 0.034672439 0.83992535 0.0045535914
0.10434922 0.014627117 -0.37391976 -0.1277629 -0.0043868138 0.99179506 0.012129255
0.11193237 0.013348388 -0.37333983 -0.17630741 -0.23840304 0.95502865 0.010244031
0.097249351 0.024569424 -0.37841797 -0.3960768 0.24165241 0.8858484 0.0028516282
0.1042951 0.026133219 -0.37663269 -0.1177889 0.15363999 0.98108131 0.0068353093
0.11104736 0.027560424 -0.37666017 0.037288718 -0.02910151 0.99888068 0.0075877174
0.098831177 0.031478882 -0.37939453 -0.33406776 0.18142715 0.92492318 0.0023591779
0.10528018 0.034153499 -0.37699685 -0.41540697 0.012730205 0.90954661 0.0076747457
0.1135717 0.033905555 -0.3720198 -0.54621202 -0.36181545 0.75547469 0.0074245613
-0.031097412 0.047393799 -0.37231445 -0.22898515 -0.42623729 0.87515002 0.0018635563
-0.027146233 0.048372056 -0.37106663 -0.16521473 -0.29255337 0.94186878 0.0031943754
-0.031005859 0.050720215 -0.37133789 -0.32982948 -0.44866416 0.8306101 0.0032993597
-0.0279759 0.051252093 -0.37050083 -0.28976861 -0.18241709 0.93955207 0.0037160001
-0.0018741062 0.058820453 -0.37897602 -0.27342376 -0.3778252 0.88458329 0.010954698
0.0027197972 0.058795929 -0.37884521 0.1127384 -0.36426762 0.92444527 0.014308687
-0.0035872222 0.065128326 -0.37810057 -0.13221888 -0.078175612 0.98813295 0.0088982265
0.0032520369 0.064397179 -0.37782797 0.093598865 -0.1412041 0.98554587 0.006632552
0.029541016 0.064575195 -0.37841797 0 0 1 0.011352612
0.035265304 0.065657675 -0.37798715 0.067350306 -0.20919177 0.97555256 0.0096079055
0.087487794 0.066906735 -0.37890625 -0.12370083 -0.43290946 0.89290959 0.0010324589
0.096496582 0.066848755 -0.37902832 -0.067169316 -0.44870692 0.89115113 0.0060664751
0.10367719 0.065858729 -0.37866691 -0.047339957 -0.16130674 0.9857682 0.0068066344
-0.0038520813 0.070922852 -0.37822264 0 0 1 0.0073383688
0.0013163885 0.0703125 -0.37744141 0 0 1 0
0.035308838 0.0703125 -0.37744141 0 0 1 0.0009688079
0.079296872 0.078625485 -0.37348634 -0.49538538 -0.4298636 0.75485802 0.0039281771
0.08385434 0.076162584 -0.37231445 -0.29360375 -0.4815515 0.82577544 0.0093859425
0.09862671 0.071472168 -0.37744141 0.024569917 -0.18194185 0.98300225 0.010459447
0.10587511 0.073516846 -0.37816098 0.0045663491 -0.019762529 0.9997943 0.0018854683
-0.01096344 0.085906982 -0.37646484 0.33120987 -0.20101714 0.92189598 0.003800608
-0.0042332239 0.081961498 -0.37939453 0.068745226 -0.28386292 0.95639741 0.0046213497
0.079488121 0.081237793 -0.37198892 -0.44652191 -0.46078607 0.76700342 0.0010966732
0.081522621 0.080952965 -0.37068686 -0.59548962 -0.39929897 0.6971029 0.0025211235
-0.012646484 0.10613491 -0.37410018 -0.18936187 -0.21720366 0.95758271 0.006406399
-0.0068288129 0.1061545 -0.37400907 0.11527635 -0.16278234 0.97990471 0.0070831627
-0.014673823 0.11297496 -0.37192383 -0.21199504 -0.44874236 0.86815226 0.0081889005
-0.0051677185 0.11367299 -0.37155095 0.11923751 -0.38600007 0.91476035 0.0083243363
0.00072032213 0.11489868 -0.37182617 0.32040057 -0.26986039 0.90803015 0.0075775967
-0.0045672329 0.12587114 -0.37062767 0.46087039 0.014761533 0.88734472 0.0019078492
0.095238321 0.12587483 -0.3788687 -0.14030588 -0.20234659 0.96921104 0.009523211
0.10003662 0.12805176 -0.37841797 0 0 1 0.0017181264
0.097309113 -0.025614738 -0.36468506 -0.54995322 0.48137566 0.68251657 0.0018829256
0.1027832 -0.021868387 -0.36336264 -0.43086115 0.49037477 0.75755608 0.0021292816
0.12687466 -0.0027428525 -0.36467633 -0.25522646 0.33572283 0.90672463 0.0069298097
0.13154484 -0.0016987186 -0.36410758 -0.31806576 0.2235176 0.92134362 0.0075799059
0.1295166 0.0010881424 -0.36523438 0 0 1 0.003432184
0.13494873 0.0027661324 -0.36328125 -0.42157599 0.36711022 0.82915848 0.002822144
0.14130859 0.0053329468 -0.36074218 -0.48467892 0.44167197 0.75499153 0.0029970068
0.15246582 0.014112473 -0.36450195 -0.5699755 0.54852176 0.61176133 0.011962243
0.16749403 0.024242826 -0.36447483 -0.067707852 0.26250124 0.96255332 0.0037467401
0.17275661 0.02768792 -0.36431205 -0.456954 0.28928012 0.8411361 0.0073531684
0.11705865 0.035862677 -0.3689869 -0.26430956 -0.21329972 0.94055498 0.0065904609
0.12045288 0.033752441 -0.36889648 0.030525455 -0.21481887 0.97617674 0.0044082403
0.17673747 0.03270467 -0.36450195 -0.32611847 0.25224221 0.91105461 0.0054937806
0.18312211 0.037016436 -0.36403587 -0.26428327 0.30997491 0.91327435 0.003506525
0.11431885 0.040100098 -0.36938477 -0.21498512 -0.10908971 0.97050542 0.0063526253
0.1884613 0.042556763 -0.36560059 -0.23079501 0.41649133 0.87935692 0.0040289052
0.19512068 0.045985632 -0.36511812 -0.34353948 0.36073494 0.86709338 0.0042216196
0.20234026 0.048296247 -0.36244419 -0.53548431 0.44197616 0.71966213 0.0034285628
-0.023249965 0.053068098 -0.36938477 -0.039830375 -0.053888347 0.99775225 0.005485082
-0.01893425 0.052734375 -0.36938477 0 0 1 0.00023851148
0.1975708 0.050018311 -0.36621094 -0.43081295 0.49083009 0.75728858 0.0033520602
0.20259602 0.050832111 -0.36393228 -0.42460233 0.52665436 0.73644286 0.0034668378
0.086181641 0.079101562 -0.36938477 -0.082196124 -0.47965819 0.87359709 0.011865809
0.085466057 0.08266896 -0.36847556 -0.044753708 -0.35353443 0.93435031 0.011449247
-0.0046341154 0.094390869 -0.36376953 0.038032193 -0.31886092 0.94703817 0.0015807881
-0.012357611 0.11765651 -0.36933336 -0.070715599 -0.21615556 0.9737947 0.015586254
-0.0076264599 0.11789645 -0.36938477 0.13649152 -0.13190331 0.98182058 0.012940229
-0.012615712 0.12319946 -0.36886394 -0.050502639 -0.014194901 0.99862307 0.017457588
-0.0077870111 0.12370994 -0.36938477 0.20560779 0.026839226 0.97826636 0.014760617
-0.055573963 -0.13424829 -0.3503418 -0.029600445 0.018068304 0.99939853 0.016012531
-0.056379773 -0.12514241 -0.3503418 -0.013590354 0.0028459311 0.99990356 0.0074210437
-0.046987914 -0.1211792 -0.3503418 -0.02082297 0.38236156 0.92377812 0.029498002
-0.032513428 -0.12084961 -0.3503418 -0.0071242759 0.61013597 0.79226476 0.03396038
-0.06117757 -0.11322021 -0.3503418 0 0 1 0
-0.055602591 -0.11486991 -0.3503418 0.010287208 0.039913964 0.99915016 0.0066064154
-0.045028687 -0.11539713 -0.3503418 -0.00060038985 0.020405466 0.99979162 0.0042115096
-0.034688313 -0.11539713 -0.3503418 -0.00082947727 0.030334689 0.99953943 0.0061645256
-0.025327485 -0.11414205 -0.3503418 -0.021466652 0.084128506 0.99622363 0.0086015044
-0.015876407 -0.11324492 -0.3503418 -0.024445996 0.11999411 0.99247366 0.013216006
-0.008787537 -0.1114624 -0.3503418 -0.1052106 0.34482351 0.93275261 0.022403162
0.012950473 -0.11151123 -0.3503418 -0.048345879 0.33072719 0.94248724 0.026505895
-0.061912026 -0.10508626 -0.35040691 -0.020977823 0.072355181 0.99715835 0.0035462761
-0.05536906 -0.10506592 -0.3503418 -0.00026161416 0.0053433194 0.99998575 0.0010113654
-0.045029908 -0.10506897 -0.35035157 0.018416312 0.0083684642 0.99979538 0.0018611895
-0.034737144 -0.10521376 -0.35085177 0.035226554 0.094262667 0.99492395 0.0072053871
-0.024909126 -0.10511882 -0.35052627 0.029956173 0.053463351 0.99812043 0.0093086194
-0.015109168 -0.10512695 -0.35054797 -0.016569557 0.093876682 0.99544591 0.0060251309
-0.0053083845 -0.10508626 -0.35040691 -0.020587731 0.11628538 0.99300247 0.0087927477
0.0050299712 -0.10463814 -0.3503418 0.0033586929 0.086876929 0.99621338 0.010318022
0.015162569 -0.10480239 -0.3503418 -0.013235389 0.036045011 0.99926251 0.0054574036
0.02319512 -0.10209069 -0.3503418 -0.062978625 0.19810367 0.97815573 0.018602533
0.034487043 -0.10055106 -0.3503418 0.022787575 0.38820696 0.92129046 0.030613959
0.044408798 -0.10063934 -0.3503418 0.01299389 0.33312297 0.94279385 0.032735355
0.055478778 -0.10203479 -0.3503418 0.027376603 0.13747624 0.99012667 0.01400005
0.064034201 -0.10130727 -0.3503418 -0.074869387 0.21410696 0.97393668 0.020017467
0.078857422 -0.10089111 -0.3503418 0.25990197 0.22366531 0.93937469 0.008668487
0.080627441 -0.10180664 -0.3503418 0.083736412 0.24246112 0.96654069 0.0087844227
-0.062157769 -0.094844274 -0.35135323 -0.016968086 0.017117916 0.99970949 0.0055919834
-0.05506793 -0.094855569 -0.351163 -0.014370104 0.10341172 0.99453485 0.0060760695
-0.044705309 -0.095003061 -0.35104775 0.033786982 0.15052995 0.98802799 0.012101426
-0.034800213 -0.095033243 -0.35148716 0.014626627 0.10768455 0.9940775 0.0057539647
-0.024981463 -0.095040023 -0.35152331 0.018238356 0.14985627 0.98853958 0.010141683
-0.015162244 -0.095110103 -0.35176444 0.021766042 0.10742664 0.99397469 0.0073206467
-0.0053272308 -0.095049068 -0.35153538 -0.039052997 0.1081901 0.99336284 0.0095104305
0.005044884 -0.094997153 -0.35136175 -0.019874249 0.18257459 0.9829911 0.0085633202
0.01539122 -0.094885558 -0.35094461 -0.080246314 0.095489755 0.9921906 0.011062483
0.025167771 -0.09473937 -0.3504262 -0.0098439446 0.096242979 0.99530911 0.0048066946
0.034952801 -0.094713002 -0.3503418 0 0 1 0.0023900361
0.044748943 -0.094713002 -0.3503418 0 0 1 0.00050332176
0.055090331 -0.094713002 -0.3503418 0 0 1 0
0.065416127 -0.094713002 -0.3503418 -0.0064033703 0.0065335967 0.9999581 0.0021460853
0.075415827 -0.094198905 -0.35038906 0.014876513 0.066320769 0.99768746 0.0082129641
0.08114624 -0.09854126 -0.35131836 0.13285246 0.23598188 0.96263319 0.0045573767
-0.063649856 -0.084867202 -0.35213798 -0.036023397 0.044106133 0.9983772 0.0065926174
-0.054807857 -0.085285999 -0.35191089 0.06358768 0.11134752 0.99174505 0.0091726147
-0.044870533 -0.085147634 -0.35234088 -0.0058489894 0.096429378 0.99532259 0.0064915526
-0.034794636 -0.085268319 -0.35231847 0.0049527097 0.022545405 0.99973351 0.0026583048
-0.025064934 -0.084934488 -0.35267469 0.064823352 0.091576226 0.99368596 0.0080445567
-0.015220388 -0.085020617 -0.35302192 -0.00072601938 0.095022611 0.99547482 0.0055995174
-0.0053460225 -0.084969074 -0.35281575 -0.024696667 0.10780992 0.99386477 0.0080384417
0.0049122376 -0.085058466 -0.35269764 -0.018016404 0.10287264 0.99453139 0.0071218801
0.015282252 -0.084735826 -0.35237893 -0.052358694 0.18481021 0.98137844 0.011962078
0.025212357 -0.085194655 -0.35175902 -0.04802084 0.12683722 0.99076051 0.011869355
0.035043977 -0.085145548 -0.35124603 -0.046989497 0.21594816 0.97527349 0.011507549
0.04480508 -0.085028753 -0.35077584 -0.031530276 0.118962 0.99239808 0.0079457639
0.055131022 -0.084985353 -0.35060221 -0.028288545 0.096955635 0.99488664 0.0059298058
0.065416127 -0.08492025 -0.3503418 0.0058728512 0.0038797532 0.99997526 0.0010520542
0.074569926 -0.085150234 -0.35056823 0.040379304 0.11960354 0.99200022 0.0050226883
-0.064328954 -0.075186193 -0.35251942 0.011662577 0.096760437 0.99523938 0.007410353
-0.054769691 -0.075010128 -0.35288307 0.077504344 0.07165309 0.99441391 0.0071333782
-0.044724576 -0.074952595 -0.35320336 -0.007864085 0.051719964 0.99863064 0.0041597248
-0.035047531 -0.075053819 -0.35311612 0.014618739 0.071793467 0.99731243 0.0049144584
-0.025109185 -0.074645996 -0.35327148 0 0 1 0.00022984721
-0.015231662 -0.074645996 -0.35327148 0 0 1 0
-0.0053526033 -0.074645996 -0.35327148 0 0 1 0
0.0045248005 -0.074645996 -0.35327148 0 0 1 0
0.014950053 -0.07463786 -0.35322809 -0.04255319 -2.5418378e-05 0.99909419 0.0028219935
0.025362508 -0.074981347 -0.35242659 -0.046385311 0.021043556 0.99870193 0.0070967153
0.035151165 -0.075012207 -0.35229492 0.00023932807 0.010371226 0.99994618 0.0039351746
0.044978164 -0.074963376 -0.3520996 -0.050205361 0.082512468 0.99532467 0.0060305251
0.054701373 -0.075076707 -0.35162908 -0.057177104 0.068691716 0.99599814 0.0085927481
0.06497886 -0.075227909 -0.35095215 -0.014810749 0.096649326 0.99520826 0.010826484
0.072819106 -0.075311832 -0.35200641 0.14693204 0.13816988 0.97944885 0.010424881
-0.070662066 -0.063215777 -0.3539817 -0.072691999 0.091416895 0.99315596 0.010122923
-0.064640753 -0.064802758 -0.35329559 -0.011411244 0.0077115661 0.99990517 0.0019218437
-0.054748535 -0.064798988 -0.35327148 0 0 1 0
-0.04486084 -0.064798988 -0.35327148 0 0 1 0
-0.03497484 -0.064798988 -0.35327148 0 0 1 0
-0.025109185 -0.064798988 -0.35327148 0 0 1 0
-0.015231662 -0.064798988 -0.35327148 0 0 1 0
-0.0053526033 -0.064798988 -0.35327148 0 0 1 0.0003564583
0.0045248005 -0.064798988 -0.35327148 4.4799835e-05 0.028702404 0.99958795 0.0026818207
0.014952088 -0.064798988 -0.35327148 -0.0047745826 0.0046440819 0.99997783 0.00060830032
0.025366135 -0.064774126 -0.35313886 0.0054963287 0.095845938 0.99538106 0.0054710549
0.035240833 -0.064783163 -0.35318708 -0.0088684335 0.092866503 0.99563903 0.0049060644
0.045039423 -0.064661093 -0.35258427 -0.090606682 0.04788246 0.99473494 0.0078525273
0.05495235 -0.064771377 -0.35215542 -0.048978008 0.031317107 0.99830878 0.004513823
0.064590625 -0.065027818 -0.35194379 0.044325225 0.08318352 0.99554801 0.0086371293
0.071325682 -0.065041505 -0.35295898 0.13515604 0.074641153 0.98800886 0.015362697
0.11820984 -0.061477661 -0.35302734 0 0 1 0.0067020133
0.1229248 -0.060963947 -0.35359702 0.037558552 0.0073979241 0.99926698 0.005427496
-0.070800781 -0.057525635 -0.35424805 0 0 1 0.0045756185
-0.064540021 -0.05629769 -0.35355288 -0.040487584 0.052351702 0.99780768 0.0062156552
-0.054488286 -0.055340663 -0.35257974 -0.01100118 -0.0080113634 0.99990749 0.0096357157
-0.044762127 -0.054813337 -0.35252398 0.10265578 -0.054583795 0.99321812 0.011472529
-0.03497484 -0.054931641 -0.35327148 0.0038592934 -0.0057157944 0.99997622 0.0021986095
-0.025126517 -0.054974969 -0.35354877 0.069534309 0.048539136 0.99639791 0.0059003811
-0.015246921 -0.054982502 -0.35359702 -0.070688546 0.052287623 0.99612701 0.006574905
-0.0053554522 -0.054986272 -0.35362113 0.088438898 0.042711221 0.99516541 0.0072380593
0.0045319754 -0.055048436 -0.35401899 -0.094095759 0.057269353 0.9939146 0.0081300074
0.014963107 -0.054965548 -0.3534885 0.043160573 0.052276321 0.99769956 0.0057284976
0.025382524 -0.054948594 -0.35337999 -0.048434857 0.036378078 0.9981637 0.0036212131
0.035249498 -0.054931641 -0.35327148 0 0 1 0.00080753496
0.04511176 -0.054903008 -0.35311475 -0.043955535 0.049863737 0.99778831 0.0040412298
0.054949347 -0.054853652 -0.35283744 0.004154223 0.10541611 0.99441946 0.0070780329
0.064812556 -0.054860808 -0.35287362 0.0073252171 0.087252364 0.99615932 0.0087351613
0.071210586 -0.054661341 -0.35355049 0.073336966 0.060472321 0.99547213 0.0080743451
0.11601257 -0.057319641 -0.35185546 0.00075696263 -0.14869204 0.98888326 0.0100206
0.12488302 -0.058027904 -0.35375977 0.013244244 -0.0051957634 0.99989873 0.0043709534
0.13418302 -0.053666547 -0.35380414 -0.012757378 -0.04694904 0.99881583 0.0063251327
-0.042680006 -0.048586331 -0.35206956 0.10127724 -0.025480643 0.99453187 0.0073084566
-0.034651928 -0.047477525 -0.35252029 0.068564013 -0.071942404 0.99504936 0.0091392761
-0.02474753 -0.047042847 -0.35369873 0.11003938 -0.012602332 0.99384731 0.007188478
-0.015145896 -0.045829441 -0.35382345 -0.090383731 0.0042883512 0.99589771 0.0065767202
-0.0053030788 -0.045159914 -0.35375977 0.088719189 0.074908659 0.99323601 0.0075371293
0.0045358371 -0.045159988 -0.35419983 -0.04921221 0.0091318963 0.99874657 0.0035268485
0.014987268 -0.0451416 -0.35405272 0.043487512 0.042654023 0.99814302 0.0061920364
0.025391001 -0.045074087 -0.35351261 -0.063608602 -0.018884337 0.99779618 0.0097480929
0.035326358 -0.045134369 -0.35399488 -0.022088088 0.096681394 0.99507022 0.0093995174
0.045168653 -0.0450771 -0.35353673 -0.007904808 0.10225079 0.99472719 0.0071275588
0.05510043 -0.045105733 -0.35376579 0.0062491926 0.098562188 0.99511123 0.0069933189
0.064927675 -0.045164488 -0.35379639 0.026396492 0.091071665 0.99549448 0.0063306466
0.070713587 -0.047206335 -0.35424805 0.10315269 0.10873051 0.98870486 0.0078055644
0.098632812 -0.041320801 -0.35424805 0 0 1 0.0092874281
0.10412882 -0.04346342 -0.35272643 -0.13379399 0.24444723 0.96038783 0.010512466
0.13989258 -0.04901123 -0.35424805 0.12269087 0.092947625 0.98808283 0.0014020787
0.14485677 -0.043965656 -0.35299248 0.035706419 -0.071242057 0.99681967 0.0044044107
0.15039062 -0.040893555 -0.35229492 0 0 1 0.0061874795
-0.0031666756 -0.039672852 -0.35424805 0 0 1 0
0.0054641399 -0.038921155 -0.35424805 0 0 1 0.0001106667
0.015669284 -0.037579745 -0.35437542 -0.050407998 0.1242717 0.99096704 0.0079738367
0.025526864 -0.036687035 -0.35346332 -0.03015537 0.028907642 0.99912715 0.0097518498
0.035452154 -0.035374317 -0.35424805 0 0 1 0.0019931085
0.045254555 -0.0352608 -0.35422394 -0.004448506 -0.025322322 0.99966943 0.0016264509
0.055175781 -0.035263062 -0.35424805 0 0 1 0.00011307062
0.064408012 -0.035360362 -0.35457358 0.055961888 0.059445888 0.99666172 0.0058170529
0.098158091 -0.036271837 -0.35577619 -0.32290646 0.4092567 0.85337001 0.0083863419
0.10391633 -0.034738515 -0.35491323 -0.1612734 0.20489657 0.96540582 0.013716758
0.11088867 -0.031246949 -0.3536621 -0.39868924 0.05500792 0.91543484 0.0062680221
0.14603819 -0.03684945 -0.35064486 0.03609971 -0.040847208 0.99851298 0.0065275771
0.15057373 -0.039428711 -0.35229492 0 0 1 0.0057283333
0.1625824 -0.032777786 -0.35424805 0 0 1 1.9960245e-16
0.047866821 -0.029352188 -0.35424805 0 0 1 0.00046433278
0.055293493 -0.028582437 -0.35424805 0 0 1 0.0021505093
0.063241139 -0.028366815 -0.3551316 0.053719789 0.051513456 0.99722648 0.0059240912
0.10662448 -0.027949179 -0.35553962 -0.36286145 0.32245046 0.87427527 0.0066708806
0.11455438 -0.024827614 -0.35360953 -0.36149088 0.36642474 0.85735482 0.0057607461
0.12262137 -0.023961967 -0.35142997 -0.23000248 0.41617611 0.87971377 0.0074393773
0.15991211 -0.029052734 -0.35229492 0.22809848 -0.35358492 0.90716529 5.4242465e-16
0.1763916 -0.022561392 -0.35708618 -0.41961092 0.019694511 0.90749043 0.011927339
0.18060303 -0.021011353 -0.35522461 -0.35888529 -0.36759648 0.85794771 0.008138313
0.11655076 -0.01755771 -0.35588446 -0.21334696 0.25773704 0.94236648 0.010135909
0.12482721 -0.015297258 -0.35503206 -0.2445502 0.4022831 0.88224906 0.006395753
0.13424367 -0.012037606 -0.35317045 -0.29991376 0.34120959 0.89085782 0.0065716077
0.14233398 -0.011338234 -0.35046387 -0.2983745 0.3586323 0.88450861 0.008489511
0.17702414 -0.015458194 -0.35375977 -0.18044545 -0.012950467 0.98349977 0.00676555
0.18078613 -0.016002655 -0.35375977 0 0 1 0.0083379373
0.12915039 -0.009256999 -0.35587564 -0.4400416 0.48035574 0.75869739 0.0014521451
0.13635674 -0.0065074461 -0.35529616 -0.24677831 0.43224826 0.86733037 0.0044883699
0.14421082 -0.0043401718 -0.3536599 -0.29292786 0.46201959 0.83709681 0.005383756
0.15252686 -0.00070390699 -0.35395509 0.039941408 0.22375751 0.97382617 0.013697544
0.1697998 -0.0033283234 -0.35229492 2.8319809e-08 0.67019325 0.74218667 0.006961714
0.17494856 -0.0066651618 -0.35112652 0.0093789399 0.061387494 0.99806994 0.0099016819
0.18493189 -0.0047042421 -0.35149142 -0.037403952 -0.014313441 0.99919766 0.010106748
0.19392452 -0.0036986901 -0.35077584 -0.090718761 -0.066960953 0.9936229 0.01343493
0.14536865 0.0034892845 -0.35745606 -0.30917767 0.4443948 0.84078676 0.0051995479
0.15546627 0.0048828539 -0.35603842 -0.12680757 0.25774238 0.9578563 0.010405068
0.163634 0.0070333285 -0.35544384 -0.080688082 0.049434822 0.99551278 0.0097821346
0.17662856 0.005434934 -0.35177791 0 0 1 0.00064140203
0.18550301 0.0047597289 -0.35099792 -0.051528215 0.0032655185 0.99866617 0.0068829772
0.19402337 0.0065216874 -0.35053414 -0.13858202 0.028455997 0.98994201 0.01073521
0.20241292 0.0083115892 -0.35091147 0 0 1 0.0047107767
0.21595764 0.0079951286 -0.35397339 -0.1710175 -0.19298185 0.96618378 0.0075303828
0.22070312 0.0092849731 -0.35327148 0 0 1 0.007736085
0.1587469 0.012173739 -0.35751066 -0.35346794 0.15721972 0.92214006 0.012081803
0.1654712 0.01360321 -0.35643554 -0.15798016 0.16492727 0.97357142 0.011903512
0.17401911 0.016172716 -0.35553962 -0.16384053 0.095738336 0.98183012 0.0075298315
0.18450928 0.015343257 -0.35327148 0 0 1 0.0036253924
0.19417098 0.01239921 -0.35044736 -0.1175262 -0.063760854 0.99102086 0.01193102
0.20477825 0.015098738 -0.35044795 0.00094285631 -0.025253095 0.99968064 0.0078940187
0.21553741 0.015865508 -0.35128736 -0.001719572 -0.16184928 0.98681396 0.0091504119
0.22070312 0.011482239 -0.35327148 0.19916439 -0.046754491 0.97885013 0.011476869
0.17739868 0.022977829 -0.3563334 -0.36438909 0.31534231 0.87623054 0.0096414844
0.18446304 0.025419524 -0.35577208 -0.094929002 0.11756223 0.98851788 0.0085395565
0.1942215 0.029149055 -0.35699463 0.025337808 -0.0060622618 0.99966061 0.013550527
0.20800781 0.020629883 -0.3503418 0 0 1 0.021435715
0.21558087 0.025911478 -0.35041693 -0.0084813209 -0.0042813034 0.99995488 0.011058351
0.22222346 0.025667364 -0.35083008 0.03028384 0.021819908 0.99930316 0.0057857917
0.1884484 0.032336894 -0.3574782 -0.31835246 0.37427384 0.8709597 0.0076084114
0.19565088 0.034258392 -0.35693789 -0.10700091 0.064765349 0.99214727 0.018168014
0.20463054 0.037281711 -0.35641181 -0.17322519 -0.068910301 0.98246849 0.013212962
0.21701841 0.034935847 -0.35258427 -0.063119471 0.1047095 0.9924978 0.0062049339
0.22164577 0.033871967 -0.35224068 -0.032540653 0.058033589 0.9977842 0.0060819811
0.19921875 0.040893555 -0.35864258 -0.30218443 0.43615931 0.84761405 0.0064127482
0.20585863 0.044118244 -0.35722584 -0.33222568 0.31854978 0.88777936 0.0072135692
0.21362644 0.04310523 -0.35552299 -0.067417376 0.070230544 0.99525005 0.010483827
-0.052166749 -0.13468018 -0.34912109 -0.032667525 0.01446261 0.99936163 0.015572679
-0.045394897 -0.13453798 -0.34798616 -0.058670301 0.076860726 0.99531418 0.010526827
-0.035147332 -0.13407917 -0.34790355 0.082379878 0.13548218 0.98734903 0.010572897
-0.02560997 -0.13244018 -0.34875488 0.047014959 0.032561313 0.99836332 0.010929169
-0.015014648 -0.13202582 -0.34810835 -0.001361993 0.034750268 0.99939513 0.0016475009
-0.0064207078 -0.13149413 -0.34868163 0.10675564 -0.0014348041 0.99428415 0.0091047771
-0.051990651 -0.12469482 -0.34912109 0.003344856 0.031124206 0.99950999 0.016145285
-0.044812307 -0.12551329 -0.34881517 -0.032146011 0.15890601 0.98677027 0.014523856
-0.03512999 -0.12549183 -0.34890535 0.051811595 0.12602417 0.99067324 0.012673943
-0.0247018 -0.12498474 -0.34905133 -0.027416937 0.033116903 0.99907541 0.0040741242
-0.015033976 -0.12514445 -0.348546 -0.051320009 0.093130447 0.99433041 0.0072575402
-0.0053960937 -0.12476022 -0.34844679 0.036728434 0.064419471 0.9972468 0.011583925
0.0047015664 -0.12417528 -0.34843037 -0.035471447 0.11621724 0.99259019 0.0082952529
0.014998966 -0.12288751 -0.34816262 -0.031300787 0.12910435 0.99113691 0.0063469042
0.024892034 -0.12180473 -0.34801257 -0.070317738 0.046569306 0.99643707 0.0061229602
0.034235176 -0.12089955 -0.34787819 0.046718735 0.118629 0.99183899 0.0077837599
0.04313777 -0.12068998 -0.3479943 -0.14816396 0.16320422 0.97540343 0.0060461182
-0.053573608 -0.11832885 -0.34912109 0.0026863241 0.21095489 0.97749215 0.037406038
-0.023738695 -0.1182304 -0.34912109 -0.03882347 0.19032247 0.98095369 0.01777838
-0.014222756 -0.1173753 -0.34912109 -0.037181534 0.13131025 0.99064374 0.0133814
-0.0050631072 -0.11532191 -0.34912109 -0.0096976478 0.090062223 0.99588889 0.010487889
0.0050158263 -0.11506483 -0.34912109 0.0068943342 0.011217508 0.99991339 0.0060560075
0.015615887 -0.11549208 -0.34895834 -0.079404615 0.11446568 0.99024874 0.012402585
0.02502837 -0.11478151 -0.34827715 -0.032331865 0.091741741 0.99525785 0.0060981889
0.034783259 -0.11483878 -0.34844595 0.0098454589 0.10614683 0.99430168 0.0068060197
0.04499783 -0.11512247 -0.34843749 -0.018087877 0.15244724 0.98814613 0.0084809009
0.054979112 -0.11442284 -0.34806013 -0.073365219 0.20282459 0.97646284 0.0098081101
0.064675726 -0.11297967 -0.34808707 0.017068325 0.037674773 0.99914432 0.0031251556
0.074774846 -0.11257324 -0.34814453 0 0 1 0.00064467778
0.081372067 -0.11161499 -0.34853515 0.094128318 0.16634524 0.9815647 0.011004759
0.0050162077 -0.10961914 -0.34912109 0.0016483214 0.60915124 0.79305243 0.037084416
0.018798828 -0.1092041 -0.34912109 -0.16700603 0.32920012 0.92937416 0.020890063
0.025887489 -0.10596085 -0.34912109 -0.024965763 0.094201893 0.99524003 0.012361916
0.034937005 -0.1055852 -0.34912109 0.0013523124 0.071356796 0.99744999 0.0069446219
0.044693407 -0.10571042 -0.34912109 0.0016695907 0.073316783 0.99730736 0.0064561749
0.054642249 -0.10692938 -0.34907058 0.0039633606 0.17258561 0.98498654 0.014197064
0.065546289 -0.10593425 -0.34874213 -0.065925919 0.2088916 0.97571415 0.014851144
0.074721113 -0.10527626 -0.3485702 0.035623845 0.12185398 0.99190855 0.0095925992
0.081624351 -0.10740831 -0.34912109 0.0048731738 0.08185444 0.99663234 0.009073304
0.069580078 -0.099853516 -0.34912109 -0.63060564 0.43777236 0.64085251 0.022564676
0.072824098 -0.098248288 -0.34912109 0.051118433 0.14582397 0.98798901 0.022985535
0.10864258 -0.052134197 -0.34912109 0 0 1 0.0068011624
0.11298915 -0.051901679 -0.34912109 0.011389187 -0.032253664 0.9994148 0.01494913
0.10919189 -0.049957275 -0.34912109 0 0 1 0.0097550005
0.1160384 -0.046055719 -0.34773138 -0.024197347 -0.031633824 0.9992066 0.013524766
0.12434285 -0.043557741 -0.34829101 0.033699922 -0.042746801 0.99851739 0.0066144774
0.13205135 -0.041494932 -0.34883386 0 0 1 0.0061628395
0.11773892 -0.036609519 -0.34824556 -0.01539634 0.25861079 0.96585894 0.012444426
0.12486658 -0.034535963 -0.34814453 -0.1032517 0.047310136 0.9935295 0.0087281531
0.1346499 -0.034500517 -0.34805575 0.0074071945 -0.0078036455 0.99994206 0.0082746763
0.14250489 -0.032788087 -0.34888673 0.016391007 -0.011350872 0.99980122 0.006928884
0.12638216 -0.027737033 -0.34830204 -0.3286137 0.10454278 0.93866068 0.0096277278
0.13555306 -0.025338402 -0.34748432 0.0032808406 0.004077869 0.99998635 0.0070123216
0.14497831 -0.024725778 -0.34820795 0.011019439 -0.010375481 0.99988544 0.0027133797
0.1534857 -0.02263223 -0.34877458 0 0 1 0.0075839763
0.13885498 -0.019245148 -0.34814453 0.085631728 0.081707068 0.99297088 0.0098585999
0.14619344 -0.01553065 -0.34814453 -0.051587116 0.081350908 0.99534965 0.014653477
0.1549087 -0.015095814 -0.34800333 -0.02508788 -0.030268101 0.99922693 0.0095114829
0.1638729 -0.014252683 -0.34876788 0.017193751 -0.030296618 0.99939311 0.0076872269
0.15727997 -0.00887537 -0.34716797 0 0 1 0.0025887203
0.16411482 -0.0090114046 -0.34828404 0.050024886 0.013492422 0.99865687 0.0077318144
0.19543457 -0.0004510358 -0.34912109 -0.11601774 -0.12151464 0.98578596 0.0251255
0.19543457 0.0022532518 -0.34912109 -0.12510163 0.10545235 0.98652387 0.024383456
0.19749451 0.016141891 -0.34912109 -0.045140468 -0.044313923 0.99799722 0.013254165
0.20148383 0.017919753 -0.34912109 0.026580272 -0.041502446 0.99878484 0.0059029637
0.20630352 0.022657542 -0.34912109 0 0 1 0.0092830919
0.21331543 0.02308899 -0.34912109 -0.0025849906 -0.026511323 0.99964517 0.020438537
0 0 0 1 0 0 0 1 0 0 0 1 0 0 0 0 0 380 1 0 0
