ply
format ascii 1.0
comment PCL generated
element vertex 774
property float x
property float y
property float z
property float nx
property float ny
property float nz
property float curvature
element face 0
element camera 0
property float view_px
property float view_py
property float view_pz
property float x_axisx
property float x_axisy
property float x_axisz
property float y_axisx
property float y_axisy
property float y_axisz
property float z_axisx
property float z_axisy
property float z_axisz
property float focal
property float scalex
property float scaley
property float centerx
property float centery
property int viewportx
property int viewporty
property float k1
property float k2
end_header
0.11151123 0.013870239 -0.37329102 0 0 1 0
0.1126709 0.013870239 -0.37329102 -0.41076368 -0.42606276 0.80606687 0.029888554
0.11352539 0.013832092 -0.37231445 -0.41076368 -0.42606276 0.80606687 0.029888554
0.11468506 0.013832092 -0.37231445 -0.41076362 -0.42606279 0.80606687 0.029888578
0.1517334 0.013534546 -0.36425781 -0.56997597 0.5485208 0.61176151 0.0055492516
0.1529541 0.013534546 -0.36425781 -0.56997597 0.5485208 0.61176151 0.0055492516
0.15881348 0.013275146 -0.35717773 0 0 1 0
0.15991211 0.013275146 -0.35717773 -0 -0 1 0
0.16113281 0.013275146 -0.35717773 0 0 1 0
0.16223145 0.013275146 -0.35717773 -0.50857419 0.27403483 0.81624573 0.034085985
0.1628418 0.013237 -0.35620117 -0.34711108 0.53253186 0.77196091 0.046172462
0.16394043 0.013237 -0.35620117 0 0 1 0
0.16503906 0.013237 -0.35620117 0 0 1 0
0.1661377 0.013237 -0.35620117 0 0 1 0
0.16723633 0.013237 -0.35620117 0 0 1 0
0.16833496 0.013237 -0.35620117 -0.36481717 0.16529155 0.91628987 0.058675721
0.16906738 0.013198853 -0.35522461 -0.42233321 0.44521305 0.7895695 0.030819373
0.17016602 0.013198853 -0.35522461 0 0 1 0
0.17126465 0.013198853 -0.35522461 0 0 1 0
0.17236328 0.013198853 -0.35522461 0 0 1 0
0.17346191 0.013198853 -0.35522461 -0.50801599 0.27714249 0.81554389 0.034310505
0.17407227 0.013160706 -0.35424805 -0.41044933 0.53335571 0.73963714 0.03605729
0.18896484 0.013053894 -0.35131836 0 0 1 0
0.19006348 0.013053894 -0.35131836 -0.4688682 -0.2977736 0.83156079 0.042264309
0.19055176 0.013015747 -0.3503418 -0.52215081 0.0076317885 0.85281909 0.088400282
0.19165039 0.013015747 -0.3503418 0 0 1 0
0.19274902 0.013015747 -0.3503418 0 0 1 0
0.19384766 0.013015747 -0.3503418 0 0 1 0
0.19494629 0.013015747 -0.3503418 0 0 1 0
0.19604492 0.013015747 -0.3503418 -0 -0 1 0
0.19714355 0.013015747 -0.3503418 0 0 1 0
0.19824219 0.013015747 -0.3503418 -0 -0 1 0
0.19921875 0.013015747 -0.3503418 0 0 1 0
0.20031738 0.013015747 -0.3503418 0 0 1 0
0.20141602 0.013015747 -0.3503418 0 0 1 0
0.20251465 0.013015747 -0.3503418 0 0 1 0
0.20361328 0.013015747 -0.3503418 0 0 1 0
0.20471191 0.013015747 -0.3503418 0.01429112 -0.38666517 0.92210943 0.046293173
0.21459961 0.013092041 -0.35229492 0.014584064 -0.38283116 0.92370331 0.046511669
0.21569824 0.013092041 -0.35229492 -0.049202014 -0.43637517 0.89841855 0.041934591
0.21679688 0.013092041 -0.35229492 0 0 1 0
0.21789551 0.013092041 -0.35229492 0 0 1 0
0.21899414 0.013092041 -0.35229492 -0 -0 1 0
0.091125488 0.012954712 -0.38037109 -0.41315714 -0.29942083 0.86002815 0.016186513
0.093261719 0.012916565 -0.37939453 -0.50465763 -0.12514099 0.85420156 0.035670407
0.094177246 0.012886047 -0.37841797 -0.72953725 1.9592266e-08 0.68394107 0
0.095092773 0.0128479 -0.37744141 -0.44959003 -0.23359136 0.86215079 0.024299074
0.096252441 0.0128479 -0.37744141 -0.44894257 -0.23363018 0.86247754 0.024224216
0.097167969 0.012817383 -0.37646484 -0.76959532 -3.3636716e-05 0.63853192 0.0010664931
0.098083496 0.012779236 -0.37524414 -0.5358721 -0.28736857 0.79388946 0.031178074
0.099243164 0.012779236 -0.37524414 -0.44884643 -0.23527935 0.86207908 0.024339538
0.10015869 0.012748718 -0.37426758 -0.44783348 0.0039868723 0.89410818 0.051597778
0.10131836 0.012748718 -0.37426758 0 0 1 0
0.10247803 0.012748718 -0.37426758 -0.40512654 -0.41477835 0.81475848 0.028234409
0.10339355 0.012710571 -0.37329102 -0.40498167 -0.41510245 0.81466544 0.028041648
0.10455322 0.012710571 -0.37329102 0.022624262 -0.42061889 0.9069553 0.039873756
0.10571289 0.012710571 -0.37329102 0.022623895 -0.42061892 0.9069553 0.039873876
0.10687256 0.012710571 -0.37329102 0.022623895 -0.42061892 0.9069553 0.039873876
0.10803223 0.012710571 -0.37329102 0.028206002 -0.41924483 0.90743494 0.039585672
0.10919189 0.012710571 -0.37329102 0.02820489 -0.41924495 0.90743494 0.03958565
0.11035156 0.012710571 -0.37329102 0.028205616 -0.41924492 0.90743488 0.039585486
0.11151123 0.012710571 -0.37329102 0.028205955 -0.41924483 0.907435 0.039585613
0.1126709 0.012710571 -0.37329102 -0 -0 1 0
0.11383057 0.012710571 -0.37329102 -0.31089842 -0.44171807 0.84156245 0.042817637
0.15710449 0.012199402 -0.35839844 -0.59734321 0.55267549 0.58114606 0.052671485
0.15820312 0.012199402 -0.35839844 -0.62340885 0.063711181 0.7792961 0.044899616
0.15881348 0.012161255 -0.35717773 -0.63516909 0.0048909574 0.77235758 0.09270867
0.15991211 0.012161255 -0.35717773 -0 -0 1 0
0.16113281 0.012161255 -0.35717773 -0.32978275 0.53401154 0.77850825 0.044519529
0.16174316 0.012130737 -0.35620117 -0.36811319 0.18187103 0.91181993 0.06742017
0.1628418 0.012130737 -0.35620117 0 0 1 0
0.16394043 0.012130737 -0.35620117 0 0 1 0
0.16503906 0.012130737 -0.35620117 0 0 1 0
0.1661377 0.012130737 -0.35620117 0 0 1 0
0.16723633 0.012130737 -0.35620117 -0.50921887 0.27612853 0.81513745 0.03437971
0.16784668 0.01210022 -0.35522461 -0.32917339 0.53741401 0.7764219 0.044508543
0.16906738 0.01210022 -0.35522461 -0 -0 1 0
0.17016602 0.01210022 -0.35522461 0 0 1 0
0.17126465 0.01210022 -0.35522461 0 0 1 0
0.17236328 0.01210022 -0.35522461 -0.50685984 0.0049809935 0.86201406 0.075366288
0.17297363 0.012062073 -0.35424805 -0.18842183 -0.36630231 0.91121888 0.055150308
0.18786621 0.011962891 -0.35131836 0 0 1 0
0.18896484 0.011962891 -0.35131836 0 0 1 0
0.19006348 0.011962891 -0.35131836 -0.52217543 0.0066824476 0.85281193 0.088083223
0.19055176 0.011924744 -0.3503418 -0.46885544 -0.29660991 0.83198386 0.042191841
0.19165039 0.011924744 -0.3503418 0 0 1 0
0.19274902 0.011924744 -0.3503418 0 0 1 0
0.19384766 0.011924744 -0.3503418 0 0 1 0
0.19494629 0.011924744 -0.3503418 0 0 1 0
0.19604492 0.011924744 -0.3503418 0 0 1 0
0.19714355 0.011924744 -0.3503418 0 0 1 0
0.19824219 0.011924744 -0.3503418 0 0 1 0
0.19921875 0.011924744 -0.3503418 0 0 1 0
0.20031738 0.011924744 -0.3503418 0 0 1 0
0.20141602 0.011924744 -0.3503418 0 0 1 0
0.20251465 0.011924744 -0.3503418 0 0 1 0
0.20422363 0.011962891 -0.35131836 0.01443765 -0.38474306 0.92291081 0.046404552
0.20532227 0.011962891 -0.35131836 0.014437605 -0.38474306 0.92291081 0.046404529
0.21459961 0.011993408 -0.35229492 -0.19208829 -0.29801926 0.9350329 0.031999417
0.21569824 0.011993408 -0.35229492 -0.048893753 -0.43547541 0.89887184 0.041559801
0.21679688 0.011993408 -0.35229492 -0.048893753 -0.43547541 0.89887184 0.041559801
0.21789551 0.011993408 -0.35229492 -0.048893753 -0.43547541 0.89887184 0.041559801
0.21899414 0.011993408 -0.35229492 0.014488214 -0.38212624 0.92399651 0.046082962
0.22070312 0.012031555 -0.35327148 0.38990414 -0.091531269 0.91629505 0.030681951
0.093261719 0.011741638 -0.37939453 -0.50465763 -0.12514098 0.85420161 0.035670411
0.096252441 0.011672974 -0.37744141 -0.5046671 -0.12606385 0.85406035 0.03592889
0.097167969 0.011642456 -0.37646484 -0.72953719 9.9991633e-09 0.68394107 0
0.099243164 0.011611938 -0.37524414 -0.57901591 -0.1954651 0.79153901 0.060308028
0.10015869 0.011581421 -0.37426758 -0.40407506 -0.41283113 0.81626821 0.027856486
0.10131836 0.011581421 -0.37426758 0 0 1 0
0.10247803 0.011581421 -0.37426758 -0 -0 1 0
0.1036377 0.011581421 -0.37426758 0.022624191 -0.42061871 0.90695536 0.039873809
0.10479736 0.011581421 -0.37426758 0.022624586 -0.42061886 0.9069553 0.039873958
0.10595703 0.011581421 -0.37426758 0.022623895 -0.42061892 0.9069553 0.039873876
0.1071167 0.011581421 -0.37426758 0.025526267 -0.42025012 0.90704924 0.038846485
0.1083374 0.011581421 -0.37426758 0.022498842 -0.42008105 0.90720761 0.038824353
0.10949707 0.011581421 -0.37426758 0.028205955 -0.41924483 0.907435 0.039585613
0.11065674 0.011581421 -0.37426758 0.028205616 -0.41924492 0.90743488 0.039585486
0.11181641 0.011581421 -0.37426758 -0.21571258 -0.4378708 0.87277561 0.021090128
0.15710449 0.01108551 -0.35839844 -0.70008725 0.1944273 0.68707782 0.061434168
0.15771484 0.011054993 -0.35717773 -0.59908056 0.33159029 0.72880059 0.041541539
0.15881348 0.011054993 -0.35717773 0 0 1 0
0.15991211 0.011054993 -0.35717773 -0.42412078 0.4447087 0.78889519 0.031150319
0.16064453 0.011024475 -0.35620117 -0.3421925 0.51374543 0.78674638 0.042393561
0.16174316 0.011024475 -0.35620117 0 0 1 0
0.1628418 0.011024475 -0.35620117 0 0 1 0
0.16394043 0.011024475 -0.35620117 0 0 1 0
0.16503906 0.011024475 -0.35620117 0 0 1 0
0.1661377 0.011024475 -0.35620117 -0.34834728 0.53392172 0.77044255 0.046537124
0.16674805 0.010993958 -0.35522461 -0.50921887 0.27612853 0.81513751 0.034379639
0.16784668 0.010993958 -0.35522461 0 0 1 0
0.16906738 0.010993958 -0.35522461 -0 -0 1 0
0.17016602 0.010993958 -0.35522461 0 0 1 0
0.17126465 0.010993958 -0.35522461 0 0 1 0
0.17236328 0.010993958 -0.35522461 0 0 1 0
0.17346191 0.010993958 -0.35522461 -0.32463679 -0.23167643 0.91702616 0.089726321
0.18566895 0.010871887 -0.35131836 0 0 1 0
0.18676758 0.010871887 -0.35131836 0 0 1 0
0.18786621 0.010871887 -0.35131836 0 0 1 0
0.18896484 0.010871887 -0.35131836 0 0 1 0
0.19006348 0.010871887 -0.35131836 0 0 1 0
0.19116211 0.010871887 -0.35131836 -0.46935275 -0.29544458 0.83211809 0.042041734
0.19165039 0.01083374 -0.3503418 -0.46884441 -0.29545006 0.83240265 0.042119067
0.19274902 0.01083374 -0.3503418 0 0 1 0
0.19384766 0.01083374 -0.3503418 0 0 1 0
0.19494629 0.01083374 -0.3503418 0 0 1 0
0.19604492 0.01083374 -0.3503418 0 0 1 0
0.19714355 0.01083374 -0.3503418 0 0 1 0
0.19824219 0.01083374 -0.3503418 0 0 1 0
0.19921875 0.01083374 -0.3503418 -0 -0 1 0
0.20031738 0.01083374 -0.3503418 0 0 1 0
0.20141602 0.01083374 -0.3503418 0 0 1 0
0.203125 0.010871887 -0.35131836 0 0 1 0
0.20422363 0.010871887 -0.35131836 0 0 1 0
0.20532227 0.010871887 -0.35131836 -0 -0 1 0
0.2130127 0.010932922 -0.35327148 -0.33421463 -0.48067978 0.81070799 0.04207306
0.21411133 0.010932922 -0.35327148 -0.048893753 -0.43547541 0.89887184 0.041559801
0.21520996 0.010932922 -0.35327148 -0.048893753 -0.43547541 0.89887184 0.041559801
0.21630859 0.010932922 -0.35327148 -0.048893753 -0.43547541 0.89887184 0.041559801
0.21740723 0.010932922 -0.35327148 -0.048893753 -0.43547541 0.89887184 0.041559801
0.21850586 0.010932922 -0.35327148 -0.048893753 -0.43547541 0.89887184 0.041559801
0.21960449 0.010932922 -0.35327148 -0 -0 1 0
0.22070312 0.010932922 -0.35327148 0 0 1 0
0.096252441 0.010505676 -0.37744141 -0.50466698 -0.12606379 0.85406041 0.035928894
0.099243164 0.010444641 -0.37524414 -0 -0 1 0
0.10040283 0.010444641 -0.37524414 -0.40267903 -0.41308194 0.81683105 0.027777698
0.10131836 0.010421753 -0.37426758 -0.44785777 0.0031453948 0.89409924 0.05160353
0.10247803 0.010421753 -0.37426758 0 0 1 0
0.1036377 0.010421753 -0.37426758 -0 -0 1 0
0.10479736 0.010421753 -0.37426758 0 0 1 0
0.10595703 0.010421753 -0.37426758 0 0 1 0
0.1071167 0.010421753 -0.37426758 0 0 1 0
0.1083374 0.010421753 -0.37426758 -0 -0 1 0
0.10949707 0.010421753 -0.37426758 0 0 1 0
0.11065674 0.010421753 -0.37426758 -0 -0 1 0
0.11181641 0.010421753 -0.37426758 -0 -0 1 0
0.11297607 0.010421753 -0.37426758 -0.049663424 -0.34458044 0.93744224 0.018630946
0.15600586 0.0099716187 -0.35839844 -0.50587612 0.52985913 0.68068975 0.039359175
0.15710449 0.0099716187 -0.35839844 -0.50587612 0.52985924 0.68068981 0.039359197
0.15771484 0.0099411011 -0.35717773 -0.63520944 0.0037199399 0.772331 0.092719577
0.15881348 0.0099411011 -0.35717773 -0.42590916 0.44419292 0.78822207 0.031482719
0.1595459 0.0099182129 -0.35620117 -0.42576951 0.44448194 0.78813457 0.031253792
0.16064453 0.0099182129 -0.35620117 0 0 1 0
0.16174316 0.0099182129 -0.35620117 0 0 1 0
0.1628418 0.0099182129 -0.35620117 0 0 1 0
0.16394043 0.0099182129 -0.35620117 -0 -0 1 0
0.16503906 0.0099182129 -0.35620117 -0.36811319 0.18187103 0.91181993 0.06742017
0.16564941 0.0098876953 -0.35522461 -0.34834719 0.53392166 0.77044266 0.046537083
0.16674805 0.0098876953 -0.35522461 0 0 1 0
0.16784668 0.0098876953 -0.35522461 -0 -0 1 0
0.16906738 0.0098876953 -0.35522461 0 0 1 0
0.17016602 0.0098876953 -0.35522461 0 0 1 0
0.17126465 0.0098876953 -0.35522461 0 0 1 0
0.17236328 0.0098876953 -0.35522461 0 0 1 0
0.18566895 0.0097732544 -0.35131836 -0 -0 1 0
0.18676758 0.0097732544 -0.35131836 0 0 1 0
0.18786621 0.0097732544 -0.35131836 0 0 1 0
0.18896484 0.0097732544 -0.35131836 0 0 1 0
0.19006348 0.0097732544 -0.35131836 0 0 1 0
0.19116211 0.0097732544 -0.35131836 0 0 1 0
0.19226074 0.0097732544 -0.35131836 -0.46610025 -0.29797757 0.83304256 0.041676719
0.19274902 0.0097503662 -0.3503418 -0.52226466 0.0049371957 0.85276914 0.088430509
0.19384766 0.0097503662 -0.3503418 0 0 1 0
0.19494629 0.0097503662 -0.3503418 0 0 1 0
0.19604492 0.0097503662 -0.3503418 0 0 1 0
0.19714355 0.0097503662 -0.3503418 0 0 1 0
0.19824219 0.0097503662 -0.3503418 -0 -0 1 0
0.19921875 0.0097503662 -0.3503418 0 0 1 0
0.20031738 0.0097503662 -0.3503418 -0 -0 1 0
0.203125 0.0097732544 -0.35131836 -0 -0 1 0
0.20422363 0.0097732544 -0.35131836 0 0 1 0
0.20532227 0.0097732544 -0.35131836 0 0 1 0
0.21362305 0.0098571777 -0.35424805 -0.383892 -0.22605011 0.89528108 0.055835456
0.21411133 0.0098342896 -0.35327148 -0.46659264 -0.29451194 0.8339988 0.041387998
0.21520996 0.0098342896 -0.35327148 -0.048284933 -0.43367678 0.89977378 0.040820513
0.21630859 0.0098342896 -0.35327148 0 0 1 0
0.21740723 0.0098342896 -0.35327148 0 0 1 0
0.21850586 0.0098342896 -0.35327148 0 0 1 0
0.21960449 0.0098342896 -0.35327148 0 0 1 0
0.22070312 0.0098342896 -0.35327148 0 0 1 0
0.092346191 0.0094070435 -0.38037109 -0.51858842 -0.16009213 0.8399027 0.0040055676
0.098388672 0.0093078613 -0.37646484 -0.49312869 -0.27573761 0.82510173 0.033101398
0.099243164 0.0092773438 -0.37524414 -0.54549307 -0.2952168 0.78440064 0.033162668
0.10040283 0.0092773438 -0.37524414 -0.44785777 0.0031453948 0.89409924 0.05160353
0.10131836 0.0092544556 -0.37426758 -0.39949414 -0.42293799 0.81334358 0.02822238
0.10247803 0.0092544556 -0.37426758 0.028309066 -0.41657192 0.9086619 0.039445281
0.1036377 0.0092544556 -0.37426758 0 0 1 0
0.10479736 0.0092544556 -0.37426758 -0 -0 1 0
0.10595703 0.0092544556 -0.37426758 0 0 1 0
0.1071167 0.0092544556 -0.37426758 0 0 1 0
0.1083374 0.0092544556 -0.37426758 0 0 1 0
0.10949707 0.0092544556 -0.37426758 0.21854721 -0.39420551 0.89265847 0.016966773
0.15661621 0.0088348389 -0.35717773 0 0 1 0
0.15771484 0.0088348389 -0.35717773 -0.42562774 0.4450919 0.78786689 0.031337708
0.15844727 0.0088119507 -0.35620117 -0.42569757 0.44494718 0.78791088 0.031452447
0.1595459 0.0088119507 -0.35620117 0 0 1 0
0.16064453 0.0088119507 -0.35620117 0 0 1 0
0.16174316 0.0088119507 -0.35620117 0 0 1 0
0.1628418 0.0088119507 -0.35620117 -0.36811319 0.18187103 0.91181993 0.06742017
0.16345215 0.0087814331 -0.35522461 -0.36774704 0.18387355 0.91156602 0.067687757
0.16455078 0.0087814331 -0.35522461 -0 -0 1 0
0.16564941 0.0087814331 -0.35522461 0 0 1 0
0.16674805 0.0087814331 -0.35522461 0 0 1 0
0.16784668 0.0087814331 -0.35522461 -0 -0 1 0
0.16906738 0.0087814331 -0.35522461 0 0 1 0
0.17016602 0.0087814331 -0.35522461 -0 -0 1 0
0.17126465 0.0087814331 -0.35522461 0 0 1 0
0.18566895 0.008682251 -0.35131836 -0 -0 1 0
0.18676758 0.008682251 -0.35131836 0 0 1 0
0.18786621 0.008682251 -0.35131836 0 0 1 0
0.18896484 0.008682251 -0.35131836 0 0 1 0
0.19006348 0.008682251 -0.35131836 0 0 1 0
0.19116211 0.008682251 -0.35131836 0 0 1 0
0.19226074 0.008682251 -0.35131836 -0.52227229 0.0044716536 0.85276711 0.0882705
0.19274902 0.0086593628 -0.3503418 -0.52228624 0.0035819476 0.8527627 0.08827506
0.19384766 0.0086593628 -0.3503418 0 0 1 0
0.19494629 0.0086593628 -0.3503418 0 0 1 0
0.19604492 0.0086593628 -0.3503418 0 0 1 0
0.19714355 0.0086593628 -0.3503418 0 0 1 0
0.19824219 0.0086593628 -0.3503418 0 0 1 0
0.19921875 0.0086593628 -0.3503418 -0 -0 1 0
0.20031738 0.0086593628 -0.3503418 0 0 1 0
0.203125 0.008682251 -0.35131836 -0 -0 1 0
0.20422363 0.008682251 -0.35131836 0 0 1 0
0.21252441 0.0087585449 -0.35424805 0 0 1 0
0.21362305 0.0087585449 -0.35424805 0 0 1 0
0.21472168 0.0087585449 -0.35424805 -0.048284933 -0.43367678 0.89977378 0.040820513
0.21582031 0.0087585449 -0.35424805 -0.46659264 -0.29451194 0.8339988 0.041387998
0.21630859 0.0087356567 -0.35327148 -0.46659264 -0.29451194 0.8339988 0.041387998
0.21740723 0.0087356567 -0.35327148 -0.048284933 -0.43367678 0.89977378 0.040820513
0.21850586 0.0087356567 -0.35327148 0 0 1 0
0.21960449 0.0087356567 -0.35327148 0 0 1 0
0.22070312 0.0087356567 -0.35327148 0 0 1 0
0.098388672 0.0081329346 -0.37646484 -0.51692325 -0.31949177 0.7941758 0.01860337
0.10040283 0.0081176758 -0.37524414 -0 -0 1 0
0.10162354 0.0081176758 -0.37524414 0.022591548 -0.41740468 0.90843982 0.038691964
0.1027832 0.0081176758 -0.37524414 -0.40856403 -0.42282671 0.80888379 0.029444057
0.1036377 0.0080947876 -0.37426758 -0.40843457 -0.42313403 0.80878854 0.029241825
0.10479736 0.0080947876 -0.37426758 0.02786372 -0.41755143 0.90822595 0.038898204
0.10595703 0.0080947876 -0.37426758 0.15682742 -0.30554301 0.93917453 0.032402463
0.10974121 0.0081176758 -0.37524414 0.15090311 -0.31020465 0.93861669 0.033728912
0.11090088 0.0081176758 -0.37524414 0 0 1 0
0.11212158 0.0081176758 -0.37524414 0 0 1 0
0.11328125 0.0081176758 -0.37524414 0.063803345 -0.33694053 0.93936157 0.0080234921
0.15441895 0.007724762 -0.35717773 -0.35053861 0.534307 0.76918054 0.047087073
0.15551758 0.007724762 -0.35717773 0 0 1 0
0.15661621 0.007724762 -0.35717773 -0.42569757 0.44494718 0.78791088 0.031452447
0.15734863 0.0077018738 -0.35620117 -0.42562774 0.4450919 0.78786689 0.031337708
0.15844727 0.0077018738 -0.35620117 0 0 1 0
0.1595459 0.0077018738 -0.35620117 0 0 1 0
0.16064453 0.0077018738 -0.35620117 0 0 1 0
0.16174316 0.0077018738 -0.35620117 -0.51046634 0.2756342 0.81452429 0.03450555
0.16235352 0.0076828003 -0.35522461 -0.51019812 0.27720246 0.81416011 0.034620404
0.16345215 0.0076828003 -0.35522461 0 0 1 0
0.16455078 0.0076828003 -0.35522461 0 0 1 0
0.16564941 0.0076828003 -0.35522461 0 0 1 0
0.16674805 0.0076828003 -0.35522461 0 0 1 0
0.16784668 0.0076828003 -0.35522461 0 0 1 0
0.18078613 0.0075721741 -0.3503418 0 0 1 0
0.18188477 0.0075721741 -0.3503418 0 0 1 0
0.1829834 0.0075721741 -0.3503418 -0 -0 1 0
0.18566895 0.0075950623 -0.35131836 0 0 1 0
0.18676758 0.0075950623 -0.35131836 0 0 1 0
0.18786621 0.0075950623 -0.35131836 0 0 1 0
0.18896484 0.0075950623 -0.35131836 0 0 1 0
0.19006348 0.0075950623 -0.35131836 0 0 1 0
0.19116211 0.0075950623 -0.35131836 0 0 1 0
0.19226074 0.0075950623 -0.35131836 -0.63782686 0.2046515 0.7424922 0.079196393
0.19274902 0.0075721741 -0.3503418 -0.52227885 0.0040438231 0.85276508 0.088435777
0.19384766 0.0075721741 -0.3503418 0 0 1 0
0.19494629 0.0075721741 -0.3503418 0 0 1 0
0.19604492 0.0075721741 -0.3503418 0 0 1 0
0.19714355 0.0075721741 -0.3503418 0 0 1 0
0.19824219 0.0075721741 -0.3503418 0 0 1 0
0.19921875 0.0075721741 -0.3503418 0 0 1 0
0.20031738 0.0075721741 -0.3503418 -0 -0 1 0
0.203125 0.0075950623 -0.35131836 -0 -0 1 0
0.20422363 0.0075950623 -0.35131836 0 0 1 0
0.21252441 0.0076599121 -0.35424805 0 0 1 0
0.21362305 0.0076599121 -0.35424805 -0 -0 1 0
0.21472168 0.0076599121 -0.35424805 0 0 1 0
0.21582031 0.0076599121 -0.35424805 0 0 1 0
0.21691895 0.0076599121 -0.35424805 -0.048539884 -0.43266132 0.90024889 0.040935826
0.21801758 0.0076599121 -0.35424805 -0.46684337 -0.29393774 0.83406109 0.041314807
0.21850586 0.0076370239 -0.35327148 -0.46658853 -0.29394275 0.83420193 0.041352294
0.21960449 0.0076370239 -0.35327148 0 0 1 0
0.097473145 0.0069885254 -0.37744141 -0.31991324 -0.32484972 0.8900159 0.012770684
0.09954834 0.0069694519 -0.37646484 -0.40781423 -0.33815402 0.84813875 0.017810402
0.10162354 0.0069503784 -0.37524414 -0 -0 1 0
0.1027832 0.0069503784 -0.37524414 0 0 1 0
0.10394287 0.0069503784 -0.37524414 0.028137749 -0.41573861 0.90904874 0.039102372
0.10510254 0.0069503784 -0.37524414 0.028138435 -0.4157384 0.90904886 0.039102301
0.10626221 0.0069503784 -0.37524414 0.028138781 -0.41573837 0.90904891 0.039102122
0.10742188 0.0069503784 -0.37524414 0 0 1 0
0.10858154 0.0069503784 -0.37524414 0 0 1 0
0.10974121 0.0069503784 -0.37524414 0 0 1 0
0.11090088 0.0069503784 -0.37524414 0 0 1 0
0.14233398 0.0066719055 -0.36035156 -0.45679936 0.19676092 0.86753649 0.034779008
0.14416504 0.006652832 -0.359375 -0.56984907 0.1906134 0.79933631 0.07023102
0.14477539 0.0066337585 -0.35839844 -0.56966817 0.19014391 0.79957712 0.070299841
0.14599609 0.0066337585 -0.35839844 0 0 1 0
0.14709473 0.0066337585 -0.35839844 -0.20473485 0.70344335 0.6806255 0.065417573
0.14819336 0.0066337585 -0.35839844 -0 0.73409945 0.67904204 0
0.15222168 0.0066146851 -0.35717773 -0.351163 0.53500211 0.76841223 0.047271695
0.15332031 0.0066146851 -0.35717773 0 0 1 0
0.15441895 0.0066146851 -0.35717773 -0.35053849 0.53430682 0.76918077 0.047086976
0.1550293 0.0065956116 -0.35620117 -0.33093604 0.5395481 0.77418935 0.045036409
0.15625 0.0065956116 -0.35620117 0.039636459 0.42908022 0.90239626 0.037352033
0.15734863 0.0065956116 -0.35620117 0 0 1 0
0.15844727 0.0065956116 -0.35620117 0 0 1 0
0.1595459 0.0065956116 -0.35620117 0 0 1 0
0.16064453 0.0065956116 -0.35620117 -0.51052237 0.27615893 0.81431139 0.034564272
0.16125488 0.0065765381 -0.35522461 -0.36976677 0.18016116 0.91149026 0.067974716
0.16235352 0.0065765381 -0.35522461 0 0 1 0
0.16345215 0.0065765381 -0.35522461 0 0 1 0
0.16455078 0.0065765381 -0.35522461 0 0 1 0
0.16564941 0.0065765381 -0.35522461 0 0 1 0
0.16674805 0.0065765381 -0.35522461 0 0 1 0
0.1796875 0.0064849854 -0.3503418 0 0 1 0
0.18078613 0.0064849854 -0.3503418 0 0 1 0
0.18188477 0.0064849854 -0.3503418 0 0 1 0
0.1829834 0.0064849854 -0.3503418 0 0 1 0
0.18566895 0.0065040588 -0.35131836 0 0 1 0
0.18676758 0.0065040588 -0.35131836 0 0 1 0
0.18786621 0.0065040588 -0.35131836 0 0 1 0
0.18896484 0.0065040588 -0.35131836 0 0 1 0
0.19006348 0.0065040588 -0.35131836 0 0 1 0
0.19116211 0.0065040588 -0.35131836 -0.5341841 0.29653102 0.79165435 0.040362779
0.19165039 0.0064849854 -0.3503418 -0.36836866 0.20565057 0.90664899 0.078256018
0.19274902 0.0064849854 -0.3503418 0 0 1 0
0.19384766 0.0064849854 -0.3503418 0 0 1 0
0.19494629 0.0064849854 -0.3503418 0 0 1 0
0.19604492 0.0064849854 -0.3503418 0 0 1 0
0.19714355 0.0064849854 -0.3503418 0 0 1 0
0.19824219 0.0064849854 -0.3503418 0 0 1 0
0.19921875 0.0064849854 -0.3503418 0 0 1 0
0.20031738 0.0064849854 -0.3503418 0 0 1 0
0.21252441 0.0065574646 -0.35424805 0.095192015 -0.33126497 0.93872362 0.088789105
0.2142334 0.0065765381 -0.35522461 -0.39855611 -0.42475626 0.81285614 0.056166973
0.21472168 0.0065574646 -0.35424805 -0.46615529 -0.29342219 0.83462721 0.041135211
0.21582031 0.0065574646 -0.35424805 0 0 1 0
0.21691895 0.0065574646 -0.35424805 0 0 1 0
0.21801758 0.0065574646 -0.35424805 -0.37685844 -0.19005357 0.90656352 0.07949359
0.097473145 0.0058135986 -0.37744141 -0.42741039 -0.15218391 0.89115679 0.022451144
0.098632812 0.0058135986 -0.37744141 -0.42741039 -0.15218394 0.89115679 0.022451144
0.09954834 0.0057983398 -0.37646484 -0.33052453 -0.29442582 0.89669782 0.023261029
0.10070801 0.0057983398 -0.37646484 -0.51085413 -0.18836407 0.83877707 0.028815726
0.10162354 0.0057830811 -0.37524414 -0.53356379 -0.28721654 0.79549742 0.030916274
0.1027832 0.0057830811 -0.37524414 0 0 1 0
0.10394287 0.0057830811 -0.37524414 0 0 1 0
0.10510254 0.0057830811 -0.37524414 0 0 1 0
0.10626221 0.0057830811 -0.37524414 0 0 1 0
0.10742188 0.0057830811 -0.37524414 0 0 1 0
0.14038086 0.0055656433 -0.36132812 -0.4417834 0.35232142 0.82504362 0.020638619
0.14233398 0.0055503845 -0.36035156 -0.40433669 0.39202729 0.82633317 0.048397359
0.14294434 0.0055351257 -0.359375 -0.3324239 0.53510046 0.77663493 0.045226093
0.14416504 0.0055351257 -0.359375 -0.40933615 0.46726248 0.78365147 0.035782147
0.14477539 0.0055198669 -0.35839844 -0.4568592 0.0026356238 0.88953513 0.078595519
0.14599609 0.0055198669 -0.35839844 -0.38679162 0.63362283 0.67001081 0.05288865
0.14660645 0.0055046082 -0.35717773 -0.40812182 0.62879872 0.66185254 0.054744676
0.14770508 0.0055046082 -0.35717773 -0 -0 1 0
0.14880371 0.0055046082 -0.35717773 0 0 1 0
0.15002441 0.0055046082 -0.35717773 -3.0903384e-09 0.65668666 0.75416356 0
0.15112305 0.0055046082 -0.35717773 -0.098913468 0.49152666 0.86522698 0.029860931
0.15222168 0.0055046082 -0.35717773 -0.35116297 0.53500187 0.76841229 0.047271695
0.15283203 0.0054893494 -0.35620117 -0.37054303 0.17827959 0.91154504 0.067977324
0.15393066 0.0054893494 -0.35620117 0 0 1 0
0.1550293 0.0054893494 -0.35620117 0 0 1 0
0.15625 0.0054893494 -0.35620117 0 0 1 0
0.15734863 0.0054893494 -0.35620117 0 0 1 0
0.15844727 0.0054893494 -0.35620117 0 0 1 0
0.1595459 0.0054893494 -0.35620117 -0.37054303 0.17827959 0.91154504 0.067977324
0.16015625 0.0054740906 -0.35522461 -0.51079583 0.27668941 0.81395984 0.034653973
0.16125488 0.0054740906 -0.35522461 0 0 1 0
0.16235352 0.0054740906 -0.35522461 0 0 1 0
0.16345215 0.0054740906 -0.35522461 0 0 1 0
0.16455078 0.0054740906 -0.35522461 0 0 1 0
0.16564941 0.0054740906 -0.35522461 0 0 1 0
0.17858887 0.0053977966 -0.3503418 0 0 1 0
0.1796875 0.0053977966 -0.3503418 0 0 1 0
0.18078613 0.0053977966 -0.3503418 0 0 1 0
0.18188477 0.0053977966 -0.3503418 0 0 1 0
0.1829834 0.0053977966 -0.3503418 -0 -0 1 0
0.18457031 0.0054130554 -0.35131836 0 0 1 0
0.18566895 0.0054130554 -0.35131836 0 0 1 0
0.18676758 0.0054130554 -0.35131836 0 0 1 0
0.18786621 0.0054130554 -0.35131836 0 0 1 0
0.18896484 0.0054130554 -0.35131836 0 0 1 0
0.19006348 0.0054130554 -0.35131836 -0.52231187 0.0026733859 0.8527503 0.088118747
0.19055176 0.0053977966 -0.3503418 -0.6386441 0.20198599 0.74251962 0.079166532
0.19165039 0.0053977966 -0.3503418 0 0 1 0
0.19274902 0.0053977966 -0.3503418 0 0 1 0
0.19384766 0.0053977966 -0.3503418 0 0 1 0
0.19494629 0.0053977966 -0.3503418 0 0 1 0
0.19604492 0.0053977966 -0.3503418 0 0 1 0
0.19714355 0.0053977966 -0.3503418 0 0 1 0
0.19824219 0.0053977966 -0.3503418 0 0 1 0
0.19921875 0.0053977966 -0.3503418 0 0 1 0
0.20031738 0.0053977966 -0.3503418 0 0 1 0
0.2142334 0.0054740906 -0.35522461 -0.56966454 -0.52721924 0.63049352 0.059531361
0.21533203 0.0054740906 -0.35522461 -0.51491725 -0.19879462 0.83387107 0.041380625
0.21582031 0.0054588318 -0.35424805 -0.078117028 -0.49327356 0.86635965 0.076898344
0.1027832 0.0046157837 -0.37524414 -0 -0 1 0
0.10394287 0.0046157837 -0.37524414 0 0 1 0
0.10510254 0.0046157837 -0.37524414 -0 -0 1 0
0.10626221 0.0046157837 -0.37524414 0 0 1 0
0.13928223 0.0044441223 -0.36132812 -0.44995457 0.57414633 0.68402988 0.032924134
0.14038086 0.0044441223 -0.36132812 -0.44995451 0.57414639 0.68402982 0.032924179
0.14111328 0.0044326782 -0.36035156 -0.60810488 0.63622653 0.47478861 0.00017192312
0.1418457 0.0044174194 -0.359375 -0.34517449 0.51296043 0.78595561 0.043039504
0.14294434 0.0044174194 -0.359375 -0.42837971 0.44400689 0.78698713 0.031794332
0.14367676 0.0044059753 -0.35839844 -0.34561947 0.51441956 0.78480554 0.043208212
0.14477539 0.0044059753 -0.35839844 -0.57733947 0.31460717 0.75345969 0.036848098
0.14550781 0.0043945312 -0.35717773 -0.57725662 0.31549865 0.75315034 0.036911517
0.14660645 0.0043945312 -0.35717773 0 0 1 0
0.14770508 0.0043945312 -0.35717773 0.035803348 0.43017325 0.90203613 0.040043656
0.14880371 0.0043945312 -0.35717773 -0.42782408 0.44612956 0.78608835 0.031820785
0.14953613 0.0043830872 -0.35620117 -0.34531668 0.51608896 0.78384221 0.04321444
0.15063477 0.0043830872 -0.35620117 -0 -0 1 0
0.1517334 0.0043830872 -0.35620117 0 0 1 0
0.15283203 0.0043830872 -0.35620117 0.035725098 0.43158758 0.90136331 0.040109564
0.15393066 0.0043830872 -0.35620117 0.035725098 0.43158758 0.90136331 0.040109564
0.1550293 0.0043830872 -0.35620117 0.04002801 0.43068999 0.90161186 0.037936617
0.15625 0.0043830872 -0.35620117 0 0 1 0
0.15734863 0.0043830872 -0.35620117 -0 -0 1 0
0.15844727 0.0043830872 -0.35620117 -0.37054303 0.17827959 0.91154504 0.067977324
0.15905762 0.0043678284 -0.35522461 -0.37028995 0.17973892 0.91136122 0.068182208
0.16015625 0.0043678284 -0.35522461 0 0 1 0
0.16125488 0.0043678284 -0.35522461 0 0 1 0
0.16235352 0.0043678284 -0.35522461 0 0 1 0
0.16345215 0.0043678284 -0.35522461 0 0 1 0
0.16455078 0.0043678284 -0.35522461 0 0 1 0
0.17749023 0.0043067932 -0.3503418 0 0 1 0
0.17858887 0.0043067932 -0.3503418 0 0 1 0
0.1796875 0.0043067932 -0.3503418 0 0 1 0
0.18078613 0.0043067932 -0.3503418 0 0 1 0
0.18188477 0.0043067932 -0.3503418 0 0 1 0
0.1829834 0.0043067932 -0.3503418 0 0 1 0
0.18457031 0.004322052 -0.35131836 0 0 1 0
0.18566895 0.004322052 -0.35131836 0 0 1 0
0.18676758 0.004322052 -0.35131836 0 0 1 0
0.18786621 0.004322052 -0.35131836 0 0 1 0
0.18896484 0.004322052 -0.35131836 0 0 1 0
0.19006348 0.004322052 -0.35131836 -0.6386441 0.20198599 0.74251962 0.079166532
0.19055176 0.0043067932 -0.3503418 -0.52231634 0.0022397116 0.85274887 0.088282697
0.19165039 0.0043067932 -0.3503418 0 0 1 0
0.19274902 0.0043067932 -0.3503418 0 0 1 0
0.19384766 0.0043067932 -0.3503418 0 0 1 0
0.19494629 0.0043067932 -0.3503418 -0.62621552 0.35734195 0.69293648 0.047958057
0.19543457 0.0042953491 -0.34912109 -0.41084245 0.66337746 0.62541097 0.058653109
0.1965332 0.0042953491 -0.34912109 -0 -0 1 0
0.19921875 0.0043067932 -0.3503418 0 0 1 0
0.14074707 0.0033035278 -0.359375 -0.43502238 0.50460505 0.74574071 0.033128414
0.1418457 0.0033035278 -0.359375 -0.42858344 0.44470468 0.78648204 0.031790398
0.14257812 0.0032939911 -0.35839844 -0.42858344 0.44470468 0.78648204 0.031790398
0.14367676 0.0032939911 -0.35839844 -0.40235928 0.60789913 0.68451852 0.050873715
0.14440918 0.0032844543 -0.35717773 -0.5774821 0.31552583 0.75296605 0.036939152
0.14550781 0.0032844543 -0.35717773 0.035914775 0.43063128 0.90181309 0.040224656
0.14660645 0.0032844543 -0.35717773 -0.42809871 0.44668373 0.78562415 0.031932835
0.14733887 0.0032749176 -0.35620117 -0.42802751 0.44683138 0.78557891 0.031816438
0.1484375 0.0032749176 -0.35620117 0.0356142 0.43112588 0.90158862 0.039928794
0.14953613 0.0032749176 -0.35620117 0.035931543 0.43156943 0.90136385 0.040348932
0.15063477 0.0032749176 -0.35620117 0.035931543 0.43156943 0.90136385 0.040348932
0.1517334 0.0032749176 -0.35620117 -0.42826834 0.4476212 0.78499776 0.032030091
0.15246582 0.0032672882 -0.35522461 -0.428197 0.44776946 0.78495216 0.031913206
0.15356445 0.0032672882 -0.35522461 0.035630256 0.43206608 0.90113789 0.040051673
0.15466309 0.0032672882 -0.35522461 0.035630256 0.43206608 0.90113789 0.040051673
0.15576172 0.0032672882 -0.35522461 0 0 1 0
0.15686035 0.0032672882 -0.35522461 -0 -0 1 0
0.15795898 0.0032672882 -0.35522461 0 0 1 0
0.15905762 0.0032672882 -0.35522461 0 0 1 0
0.16015625 0.0032672882 -0.35522461 0 0 1 0
0.16125488 0.0032672882 -0.35522461 0 0 1 0
0.16235352 0.0032672882 -0.35522461 0 0 1 0
0.17749023 0.0032196045 -0.3503418 -0 -0 1 0
0.17858887 0.0032196045 -0.3503418 0 0 1 0
0.1796875 0.0032196045 -0.3503418 0 0 1 0
0.18078613 0.0032196045 -0.3503418 0 0 1 0
0.18188477 0.0032196045 -0.3503418 0 0 1 0
0.18457031 0.0032291412 -0.35131836 0 0 1 0
0.18566895 0.0032291412 -0.35131836 0 0 1 0
0.18676758 0.0032291412 -0.35131836 0 0 1 0
0.18786621 0.0032291412 -0.35131836 0 0 1 0
0.18896484 0.0032291412 -0.35131836 -0.52232629 0.0018884722 0.85274363 0.088041171
0.18945312 0.0032196045 -0.3503418 -0.63925642 0.20079538 0.74231565 0.079418249
0.19055176 0.0032196045 -0.3503418 0 0 1 0
0.19165039 0.0032196045 -0.3503418 0 0 1 0
0.19274902 0.0032196045 -0.3503418 0 0 1 0
0.19384766 0.0032196045 -0.3503418 -0.62675273 0.35815835 0.69202864 0.048100568
0.19433594 0.0032119751 -0.34912109 -0.62648183 0.35882679 0.69192761 0.048130821
0.19543457 0.0032119751 -0.34912109 0 0 1 0
0.1965332 0.0032119751 -0.34912109 0 0 1 0
0.19763184 0.0032119751 -0.34912109 -0 -0 1 0
0.14147949 0.0021800995 -0.35839844 -0.22301996 0.45291781 0.8632077 0.021902727
0.14257812 0.0021800995 -0.35839844 -0.57801419 0.31468737 0.75290871 0.036930546
0.14331055 0.0021743774 -0.35717773 -0.40268758 0.60949337 0.68290597 0.051019628
0.14440918 0.0021743774 -0.35717773 -0.42882249 0.44702765 0.78503346 0.032049514
0.1451416 0.0021686554 -0.35620117 -0.42876887 0.44713899 0.78499937 0.031961914
0.14624023 0.0021686554 -0.35620117 0.035772525 0.43134838 0.90147597 0.040138356
0.14733887 0.0021686554 -0.35620117 0.035892274 0.43228051 0.90102452 0.040382206
0.1484375 0.0021686554 -0.35620117 -0.4285078 0.44825402 0.78450584 0.032084111
0.14916992 0.0021629333 -0.35522461 -0.42847207 0.44832835 0.7844829 0.032025486
0.15026855 0.0021629333 -0.35522461 0.035741333 0.43252981 0.90091097 0.040233154
0.15136719 0.0021629333 -0.35522461 0.035741333 0.43252981 0.90091097 0.040233154
0.15246582 0.0021629333 -0.35522461 0.047434587 0.42849606 0.90229762 0.039507411
0.15356445 0.0021629333 -0.35522461 0.047434587 0.42849606 0.90229762 0.039507411
0.15466309 0.0021629333 -0.35522461 0.047434587 0.42849606 0.90229762 0.039507411
0.15576172 0.0021629333 -0.35522461 0 0 1 0
0.15686035 0.0021629333 -0.35522461 0 0 1 0
0.15795898 0.0021629333 -0.35522461 0 0 1 0
0.15905762 0.0021629333 -0.35522461 0 0 1 0
0.16015625 0.0021629333 -0.35522461 -0 -0 1 0
0.16125488 0.0021629333 -0.35522461 0 0 1 0
0.17858887 0.0021324158 -0.3503418 -0 -0 1 0
0.1796875 0.0021324158 -0.3503418 0 0 1 0
0.18078613 0.0021324158 -0.3503418 0 0 1 0
0.18188477 0.0021324158 -0.3503418 -0 -0 1 0
0.18347168 0.0021381378 -0.35131836 0 0 1 0
0.18457031 0.0021381378 -0.35131836 0 0 1 0
0.18566895 0.0021381378 -0.35131836 0 0 1 0
0.18676758 0.0021381378 -0.35131836 0 0 1 0
0.18786621 0.0021381378 -0.35131836 0 0 1 0
0.18896484 0.0021381378 -0.35131836 -0.52233434 0.0010025447 0.85274023 0.088124603
0.18945312 0.0021324158 -0.3503418 -0.52233338 0.0012318412 0.85274047 0.088368349
0.19055176 0.0021324158 -0.3503418 0 0 1 0
0.19165039 0.0021324158 -0.3503418 0 0 1 0
0.19274902 0.0021324158 -0.3503418 -0.46509418 0.25580555 0.84749687 0.10106653
0.1932373 0.0021247864 -0.34912109 -0.41167909 0.66380376 0.62440765 0.058861189
0.19433594 0.0021247864 -0.34912109 0 0 1 0
0.19543457 0.0021247864 -0.34912109 0 0 1 0
0.1965332 0.0021247864 -0.34912109 0 0 1 0
0.19763184 0.0021247864 -0.34912109 0 0 1 0
0.1295166 0.0010881424 -0.36523438 0 0 1 0
0.13061523 0.0010881424 -0.36523438 -0.36590815 0.13631044 0.9206143 0.051359262
0.14038086 0.0010681152 -0.35839844 -0.12618932 0.59609669 0.79293448 0.040147074
0.14147949 0.0010681152 -0.35839844 -0.40328541 0.60899448 0.6829983 0.051120136
0.14221191 0.0010643005 -0.35717773 -0.402906 0.61013091 0.68220747 0.051096126
0.14331055 0.0010643005 -0.35717773 -0.42931446 0.44751582 0.78448629 0.032169838
0.14404297 0.0010614395 -0.35620117 -0.4292472 0.44765571 0.78444326 0.032060016
0.1451416 0.0010614395 -0.35620117 0.036048584 0.43248683 0.90091932 0.040588301
0.14624023 0.0010614395 -0.35620117 -0.42904875 0.44857228 0.78402805 0.032215182
0.14697266 0.0010585785 -0.35522461 -0.4289791 0.44871691 0.78398341 0.032101206
0.14807129 0.0010585785 -0.35522461 6.7679815e-05 0.6616165 0.74984241 8.1321974e-07
0.14916992 0.0010585785 -0.35522461 0.04758177 0.4289391 0.90207934 0.039684564
0.15026855 0.0010585785 -0.35522461 0.04758177 0.4289391 0.90207934 0.039684564
0.15136719 0.0010585785 -0.35522461 -0.44137958 0.47168776 0.76334453 0.03605596
0.15197754 0.0010557175 -0.35424805 -0.44132337 0.47182834 0.76329011 0.035923302
0.15307617 0.0010557175 -0.35424805 0.047185462 0.42947987 0.90184289 0.039394524
0.1541748 0.0010557175 -0.35424805 0.18668079 0.296983 0.93645686 0.030556969
0.15576172 0.0010585785 -0.35522461 0.22442643 0.38808995 0.89387864 0.015576167
0.15686035 0.0010585785 -0.35522461 0 0 1 0
0.15795898 0.0010585785 -0.35522461 0 0 1 0
0.15905762 0.0010585785 -0.35522461 0 0 1 0
0.1796875 0.0010433197 -0.3503418 -0 -0 1 0
0.18078613 0.0010433197 -0.3503418 0 0 1 0
0.18188477 0.0010433197 -0.3503418 0 0 1 0
0.18347168 0.0010471344 -0.35131836 0 0 1 0
0.18457031 0.0010471344 -0.35131836 0 0 1 0
0.18566895 0.0010471344 -0.35131836 0 0 1 0
0.18676758 0.0010471344 -0.35131836 0 0 1 0
0.18786621 0.0010471344 -0.35131836 0 0 1 0
0.18896484 0.0010471344 -0.35131836 -0.52233654 0.00060569495 0.85273916 0.088102341
0.18945312 0.0010433197 -0.3503418 -0.52233696 0.00049818016 0.85273904 0.088351607
0.19055176 0.0010433197 -0.3503418 0 0 1 0
0.19165039 0.0010433197 -0.3503418 -0.66364563 0.00072037324 0.74804676 0.10768306
0.19213867 0.0010404587 -0.34912109 -0.55154574 0.00032200394 0.83414459 0.059162833
0.1932373 0.0010404587 -0.34912109 0 0 1 0
0.19433594 0.0010404587 -0.34912109 0 0 1 0
0.19543457 0.0010404587 -0.34912109 0 0 1 0
0.1965332 0.0010404587 -0.34912109 0 0 1 0
0.19763184 0.0010404587 -0.34912109 -0 -0 1 0
0.12841797 -4.61936e-05 -0.36523438 -0.51566964 0.36986914 0.77283996 0.043684088
0.1295166 -4.61936e-05 -0.36523438 0.036648288 0.42277071 0.90549535 0.040188096
0.13061523 -4.61936e-05 -0.36523438 -0.41175532 0.43917128 0.79848987 0.029295828
0.13146973 -4.607439e-05 -0.36425781 -0.36585009 0.13676673 0.92056966 0.051426809
0.13256836 -4.607439e-05 -0.36425781 -0.37122673 0.15098065 0.91618526 0.059087995
0.14001465 -4.5180321e-05 -0.35717773 -0.34768879 0.51779401 0.7816661 0.043837272
0.14111328 -4.5180321e-05 -0.35717773 -0.1068626 0.49264562 0.86364383 0.030292749
0.14221191 -4.5180321e-05 -0.35717773 -0.42983919 0.44794777 0.78395224 0.032262892
0.14294434 -4.5061111e-05 -0.35620117 -0.42979193 0.44804624 0.7839219 0.032185778
0.14404297 -4.5061111e-05 -0.35620117 -0.42111659 0.47028387 0.77556044 0.033146709
0.14477539 -4.4941902e-05 -0.35522461 -0.42948064 0.44927305 0.78339005 0.03222426
0.14587402 -4.4941902e-05 -0.35522461 6.0454422e-05 0.66274136 0.74884844 6.5192307e-07
0.14697266 -4.4941902e-05 -0.35522461 -0.44190982 0.47229284 0.76266319 0.036173072
0.14758301 -4.4822693e-05 -0.35424805 -0.44186568 0.47240317 0.76262039 0.036069073
0.14868164 -4.4822693e-05 -0.35424805 0.047331929 0.42992666 0.90162224 0.039571434
0.14978027 -4.4822693e-05 -0.35424805 -5.6932411e-05 0.66373146 0.747971 6.0643043e-07
0.15087891 -4.4822693e-05 -0.35424805 -5.6932411e-05 0.66373146 0.747971 6.0643043e-07
0.15197754 -4.4822693e-05 -0.35424805 0.035969757 0.43524572 0.89959282 0.040803466
0.15307617 -4.4822693e-05 -0.35424805 0 0 1 0
0.1541748 -4.4822693e-05 -0.35424805 0 0 1 0
0.15527344 -4.4822693e-05 -0.35424805 0.39561597 0.10341635 0.91257495 0.034275744
0.18078613 -4.4286251e-05 -0.3503418 0 0 1 0
0.18188477 -4.4286251e-05 -0.3503418 -0 -0 1 0
0.18347168 -4.440546e-05 -0.35131836 -0 -0 1 0
0.18457031 -4.440546e-05 -0.35131836 0 0 1 0
0.18566895 -4.440546e-05 -0.35131836 0 0 1 0
0.18676758 -4.440546e-05 -0.35131836 0 0 1 0
0.18786621 -4.440546e-05 -0.35131836 0 0 1 0
0.18896484 -4.440546e-05 -0.35131836 -0.52233797 -7.0318556e-06 0.8527385 0.088084988
0.18945312 -4.4286251e-05 -0.3503418 -0.52233797 -7.0912547e-06 0.8527385 0.088410407
0.19055176 -4.4286251e-05 -0.3503418 0 0 1 0
0.19165039 -4.4286251e-05 -0.3503418 0 0 1 0
0.19274902 -4.4286251e-05 -0.3503418 -0.62784302 -0.35818067 0.69102806 0.048234887
0.1932373 -4.4167042e-05 -0.34912109 -0.41303489 -0.66537082 0.62183917 0.05924201
0.19433594 -4.4167042e-05 -0.34912109 0 0 1 0
0.19543457 -4.4167042e-05 -0.34912109 0 0 1 0
0.1965332 -4.4167042e-05 -0.34912109 0 0 1 0
0.19763184 -4.4167042e-05 -0.34912109 0 0 1 0
0.12609863 -0.0011806488 -0.36523438 -0.35003647 0.5072853 0.78748721 0.043895155
0.12719727 -0.0011806488 -0.36523438 -0.15539469 0.56969178 0.80703384 0.052699681
0.12841797 -0.0011806488 -0.36523438 -0.4036954 0.44260541 0.80070621 0.032523535
0.12915039 -0.0011777878 -0.36425781 -0.4324908 0.4394834 0.78727758 0.031905502
0.13024902 -0.0011777878 -0.36425781 0.023893142 0.42557457 0.90460789 0.038650006
0.13146973 -0.0011777878 -0.36425781 -0 -0 1 0
0.13256836 -0.0011777878 -0.36425781 -0.43229729 0.4403688 0.78688902 0.032023776
0.13330078 -0.0011749268 -0.36328125 -0.43229726 0.44036883 0.78688908 0.032023799
0.13586426 -0.0011587143 -0.35839844 -0.41200051 0.22402817 0.883214 0.079203367
0.13659668 -0.0011548996 -0.35717773 -0.41200045 0.22402799 0.88321406 0.079203226
0.13781738 -0.0011548996 -0.35717773 -0 -0 1 0
0.13891602 -0.0011548996 -0.35717773 0 0 1 0
0.14001465 -0.0011548996 -0.35717773 -0.43032455 0.44837371 0.78344232 0.032381508
0.14074707 -0.0011520386 -0.35620117 -0.43025908 0.44851014 0.78340012 0.032274693
0.1418457 -0.0011520386 -0.35620117 0.035986811 0.43267038 0.90083361 0.040536374
0.14294434 -0.0011520386 -0.35620117 -0.44299969 0.47146809 0.76254117 0.036263239
0.14355469 -0.0011482239 -0.35522461 -0.41180164 0.47395331 0.77832365 0.036638651
0.14477539 -0.0011482239 -0.35522461 -0.41135457 0.4749828 0.77793241 0.036713116
0.14538574 -0.0011453629 -0.35424805 -0.44244516 0.47264537 0.76213425 0.036199171
0.14648438 -0.0011453629 -0.35424805 0.047509424 0.43002802 0.9015646 0.039738555
0.14758301 -0.0011453629 -0.35424805 0.036082495 0.43571422 0.89936161 0.040988699
0.14868164 -0.0011453629 -0.35424805 -0.42946962 0.45178875 0.78194809 0.032527171
0.14941406 -0.0011425018 -0.35327148 -0.42939681 0.45193967 0.78190082 0.032407716
0.1505127 -0.0011425018 -0.35327148 0.035777453 0.43622175 0.89912766 0.040685035
0.15161133 -0.0011425018 -0.35327148 -0.085067384 0.50274187 0.86024076 0.032761034
0.15307617 -0.0011453629 -0.35424805 -0 -0 1 0
0.1541748 -0.0011453629 -0.35424805 0 0 1 0
0.18078613 -0.0011320114 -0.3503418 0 0 1 0
0.18188477 -0.0011320114 -0.3503418 0 0 1 0
0.18347168 -0.0011358261 -0.35131836 -0 -0 1 0
0.18457031 -0.0011358261 -0.35131836 0 0 1 0
0.18566895 -0.0011358261 -0.35131836 0 0 1 0
0.18676758 -0.0011358261 -0.35131836 0 0 1 0
0.18786621 -0.0011358261 -0.35131836 0 0 1 0
0.18896484 -0.0011358261 -0.35131836 -0.52233672 -0.00050942349 0.85273916 0.08814808
0.18945312 -0.0011320114 -0.3503418 -0.6398018 -0.19952214 0.74218893 0.079488479
0.19055176 -0.0011320114 -0.3503418 0 0 1 0
0.19165039 -0.0011320114 -0.3503418 0 0 1 0
0.19274902 -0.0011320114 -0.3503418 0 0 1 0
0.19384766 -0.0011320114 -0.3503418 -0.62746412 -0.3580097 0.69146073 0.048172809
0.19433594 -0.0011291504 -0.34912109 -0.4659951 -0.2553075 0.84715205 0.10142551
0.19543457 -0.0011291504 -0.34912109 -0 -0 1 0
0.1965332 -0.0011291504 -0.34912109 0 0 1 0
0.19824219 -0.0011320114 -0.3503418 0 0 1 0
0.19921875 -0.0011320114 -0.3503418 -0 -0 1 0
0.125 -0.0023155212 -0.36523438 -0.51696426 0.37022635 0.77180338 0.043932267
0.12609863 -0.0023155212 -0.36523438 -0.43304113 0.43981245 0.78679121 0.032105774
0.12683105 -0.0023097992 -0.36425781 -0.40409514 0.44317776 0.80018777 0.032551102
0.12805176 -0.0023097992 -0.36425781 0.040848516 0.42297575 0.90521985 0.038056575
0.12915039 -0.0023097992 -0.36425781 0 0 1 0
0.13024902 -0.0023097992 -0.36425781 -0 -0 1 0
0.13146973 -0.0023097992 -0.36425781 -0.44721138 -0.00075620064 0.89442796 0.067443915
0.13220215 -0.0023040771 -0.36328125 -0.62974471 0.40186772 0.66477364 0.021327125
0.13659668 -0.0022659302 -0.35717773 0 0 1 0
0.13781738 -0.0022659302 -0.35717773 0.034431484 0.43084133 0.90177059 0.038688689
0.13891602 -0.0022659302 -0.35717773 -0.42294118 0.46964654 0.77495354 0.033362057
0.13964844 -0.0022583008 -0.35620117 -0.4312773 0.44853762 0.78282434 0.03243418
0.14074707 -0.0022583008 -0.35620117 0.04789193 0.42899737 0.9020353 0.039963428
0.1418457 -0.0022583008 -0.35620117 -0.44332954 0.47189176 0.76208729 0.036336765
0.14245605 -0.0022525787 -0.35522461 -0.4433012 0.47196314 0.76205963 0.036270194
0.14355469 -0.0022525787 -0.35522461 -0.43034342 0.45076606 0.78205782 0.032575767
0.14428711 -0.0022468567 -0.35424805 -0.42189753 0.47217345 0.77398616 0.033264466
0.14538574 -0.0022468567 -0.35424805 0.036215678 0.43582031 0.89930475 0.04115779
0.14648438 -0.0022468567 -0.35424805 -0.43046343 0.45191452 0.78132862 0.032667086
0.1472168 -0.0022392273 -0.35327148 -0.43040863 0.4520286 0.78129292 0.032577232
0.14831543 -0.0022392273 -0.35327148 4.8526614e-05 0.66677421 0.74525976 4.4564931e-07
0.14941406 -0.0022392273 -0.35327148 0.04763424 0.43260565 0.90032399 0.040127121
0.1505127 -0.0022392273 -0.35327148 0 0 1 0
0.18078613 -0.0022201538 -0.3503418 0 0 1 0
0.18347168 -0.0022258759 -0.35131836 0 0 1 0
0.18457031 -0.0022258759 -0.35131836 0 0 1 0
0.18566895 -0.0022258759 -0.35131836 0 0 1 0
0.18676758 -0.0022258759 -0.35131836 0 0 1 0
0.18786621 -0.0022258759 -0.35131836 0 0 1 0
0.18896484 -0.0022258759 -0.35131836 0 0 1 0
0.19006348 -0.0022258759 -0.35131836 -0.46106791 -0.29728526 0.83608484 0.040510159
0.19055176 -0.0022201538 -0.3503418 -0.35683051 -0.5684045 0.74134219 0.052153394
0.19165039 -0.0022201538 -0.3503418 0 0 1 0
0.19274902 -0.0022201538 -0.3503418 0 0 1 0
0.19384766 -0.0022201538 -0.3503418 0 0 1 0
0.19494629 -0.0022201538 -0.3503418 -0 -0 1 0
0.19604492 -0.0022201538 -0.3503418 -0 -0 1 0
0.19714355 -0.0022201538 -0.3503418 0 0 1 0
0.19824219 -0.0022201538 -0.3503418 -0 -0 1 0
0.19921875 -0.0022201538 -0.3503418 -0 -0 1 0
0.125 -0.0034503937 -0.36523438 -0.41931584 0.51048815 0.75071698 0.035294477
0.12573242 -0.0034408569 -0.36425781 -0.43375641 0.44006848 0.78625387 0.032142248
0.12683105 -0.0034408569 -0.36425781 0 0 1 0
0.12805176 -0.0034408569 -0.36425781 0 0 1 0
0.12915039 -0.0034408569 -0.36425781 -0 -0 1 0
0.13024902 -0.0034408569 -0.36425781 -0 -0 1 0
0.13146973 -0.0034408569 -0.36425781 -0.33277988 0.16770761 0.92797178 0.059026599
0.13220215 -0.0034313202 -0.36328125 -0.54404986 0.16907905 0.82184064 0.058863174
0.13549805 -0.0033760071 -0.35717773 -0.51668197 0.37877584 0.76783371 0.04515383
0.13659668 -0.0033760071 -0.35717773 -0.431492 0.44948417 0.78216279 0.032674067
0.1373291 -0.0033664703 -0.35620117 -0.42304984 0.47099352 0.77407616 0.03330962
0.13842773 -0.0033664703 -0.35620117 0.03408033 0.43255901 0.90096128 0.038491957
0.13964844 -0.0033664703 -0.35620117 -0.41290343 0.47479919 0.77722353 0.037014328
0.14025879 -0.0033569336 -0.35522461 -0.44401741 0.47258651 0.76125592 0.036364205
0.14135742 -0.0033569336 -0.35522461 0.047641277 0.42998898 0.90157622 0.039850399
0.14245605 -0.0033569336 -0.35522461 -0.43104011 0.45127034 0.78138304 0.032716714
0.14318848 -0.0033473969 -0.35424805 -0.43096697 0.45142272 0.78133541 0.032597121
0.14428711 -0.0033473969 -0.35424805 -0.43062019 0.45299101 0.78061861 0.032818954
0.14501953 -0.0033378601 -0.35327148 -0.43051004 0.4532198 0.78054661 0.032638345
0.14611816 -0.0033378601 -0.35327148 0.035877485 0.43753979 0.89848298 0.040949509
0.1472168 -0.0033378601 -0.35327148 -0.44312257 0.47599119 0.75965428 0.036721334
0.14782715 -0.0033283234 -0.35229492 -0.4430359 0.47620639 0.75957006 0.036517899
0.14892578 -0.0033283234 -0.35229492 0.18755297 0.2993339 0.93553358 0.031073617
0.1697998 -0.0033283234 -0.35229492 2.8319809e-08 0.67019325 0.74218667 0
0.17089844 -0.0033283234 -0.35229492 0 0.67019325 0.74218667 0
0.17199707 -0.0033283234 -0.35229492 0 0.67019325 0.74218667 0
0.1730957 -0.0033283234 -0.35229492 -0.31559002 0.50485498 0.8034454 0.053097833
0.17370605 -0.0033187866 -0.35131836 -0.11056565 0.48197564 0.8691805 0.077086419
0.1796875 -0.0033092499 -0.3503418 0 0 1 0
0.18078613 -0.0033092499 -0.3503418 0.40372437 -0.26918587 0.87438291 0.020082815
0.18237305 -0.0033187866 -0.35131836 0 0 1 0
0.18347168 -0.0033187866 -0.35131836 0 0 1 0
0.18457031 -0.0033187866 -0.35131836 0 0 1 0
0.18566895 -0.0033187866 -0.35131836 0 0 1 0
0.18676758 -0.0033187866 -0.35131836 -0 -0 1 0
0.18786621 -0.0033187866 -0.35131836 -0 -0 1 0
0.18896484 -0.0033187866 -0.35131836 0 0 1 0
0.19006348 -0.0033187866 -0.35131836 0 0 1 0
0.19116211 -0.0033187866 -0.35131836 -0.37037358 -0.2019932 0.90665442 0.078535914
0.19165039 -0.0033092499 -0.3503418 -0.37026283 -0.20257057 0.90657079 0.078616403
