ply
format ascii 1.0
comment PCL generated
element vertex 585
property float x
property float y
property float z
property float nx
property float ny
property float nz
property float curvature
element face 0
element camera 0
property float view_px
property float view_py
property float view_pz
property float x_axisx
property float x_axisy
property float x_axisz
property float y_axisx
property float y_axisy
property float y_axisz
property float z_axisx
property float z_axisy
property float z_axisz
property float focal
property float scalex
property float scaley
property float centerx
property float centery
property int viewportx
property int viewporty
property float k1
property float k2
end_header
0.10614014 0.1003418 -0.47265625 0.30493805 0.5392316 0.78501093 0.012268246
0.11486816 0.1003418 -0.47265625 0.042454679 0.5346337 0.84401691 0.00021132076
0.11785889 0.10272217 -0.47454834 0.067785785 0.27257046 0.95974493 0.0088754855
0.12243652 0.1005249 -0.47363281 -0.0050458596 0.63501674 0.77248186 0.00018954046
0.12536621 0.1005249 -0.47363281 0 0.81602454 0.57801735 0
0.079284668 -0.032409668 -0.46972656 -0.82902277 -0.44096503 0.34390566 0.0039607277
0.077331543 -0.027153015 -0.46679688 -0.89442724 0 0.44721362 0
0.077514648 -0.022155762 -0.46777344 -0.9608236 -1.2076527e-08 0.27716061 0
0.076782227 -0.017089844 -0.46777344 -0.8773393 0.0026007786 0.47986355 0.00011432826
0.077423096 -0.012741089 -0.46728516 -0.92826176 0.0056182216 0.371885 9.3033756e-05
0.073486328 0.003159523 -0.46972656 -0.94868332 -5.333581e-08 0.31622785 0
0.073486328 0.0053367615 -0.46972656 -0.94868332 1.3785487e-08 0.31622785 0
0.074279785 0.015365601 -0.46557617 -0.65693319 0.25854802 0.70823139 0.025136454
0.073872887 0.022237143 -0.46907553 -0.90259689 -0.026552897 0.42966717 0.0030175922
0.075744629 0.022567749 -0.46557617 -0.88368809 0.13945234 0.44682032 0.00051084888
0.07244873 0.032051086 -0.46777344 -0.88892716 -0.050277058 0.45528087 0.0013356865
0.071166992 0.037185669 -0.46875 -0.88067025 -0.15011755 0.44931576 0.00022063908
0.070760094 0.043863934 -0.46769205 -0.91017002 -0.027635714 0.41331208 0.0025619122
0.070922852 0.046463013 -0.46716309 -0.92815578 0.010868107 0.37203315 0.0012924767
0.4206543 0.048843384 -0.46923828 -0.89442724 0 0.44721362 0
0.070892334 0.05355072 -0.46923828 -0.88538969 0.0018900461 0.46484572 0.00057179702
0.070617676 0.056152344 -0.46972656 -0.91933244 0.0011849283 0.39348006 0.0031314867
0.17797852 0.059997559 -0.46557617 0.49846932 -0.019798487 0.86668128 0.0002258812
0.071411133 0.061431885 -0.46557617 -0.84793931 -0.15851876 0.50583673 0.00067652733
0.17797852 0.061431885 -0.46557617 0.49846932 -0.019798271 0.86668128 0.0002258812
0.18164062 0.060974121 -0.46777344 0.49711776 -0.028865727 0.86720282 0.00018509761
0.18530273 0.062683105 -0.46972656 0.47058821 3.5395985e-08 0.88235295 0
0.068267822 0.067596436 -0.46875 -0.88803208 -0.099036835 0.44898856 0.00051507057
0.070007324 0.067199707 -0.46557617 -0.87583631 -0.22708336 0.42584506 0.00015089767
0.068969727 0.087890625 -0.46875 -0.85985476 4.4598423e-09 0.51053876 0
0.070129395 0.087524414 -0.46679688 -0.91944438 0.00029442145 0.39322007 0.0027655854
0.068969727 0.090820312 -0.46875 -0.91627371 -0.094125509 0.38933641 0.0025372359
0.070007324 0.091674805 -0.46557617 -0.92338133 -0.052033134 0.38034144 0.0012540828
0.1151123 0.094909668 -0.46777344 0.13801123 0.74907535 0.64794993 0.0014911498
0.12060547 0.093261719 -0.46679688 -0.032479163 0.80347437 0.59445286 0.0017631078
0.12713623 0.094726562 -0.4666748 -0.22334798 0.62810314 0.7453872 0.0066086841
0.09375 0.095947266 -0.46557617 0.078463584 0.83536953 0.54405999 0.00034784077
0.098999023 0.096191406 -0.46679688 0.072641335 0.81276053 0.57805157 0.00055046572
0.10113525 0.096883141 -0.46777344 0.023517791 0.80961585 0.5864889 9.6522483e-05
0.12115479 0.095153809 -0.46875 -0.16756488 0.68144011 0.71243346 0.0041288803
0.12854004 0.096191406 -0.46679688 -0.36055079 0.60730469 0.70794356 0.010199049
0.13586426 0.096801758 -0.46972656 0.41771477 -0.011768959 0.90850198 0.0023961652
0.087463379 0.10192871 -0.46679688 0.38803893 0.54988337 0.73963106 0.0010463805
0.079528809 -0.030502319 -0.46264648 -0.87157553 8.4876755e-09 0.49026123 0
0.080627441 -0.03036499 -0.46069336 -0.87604237 -0.0050594751 0.48220772 4.5852041e-05
0.079089358 -0.02739563 -0.46342772 -0.87661451 -0.0041544307 0.48117527 7.5308039e-05
0.080627441 -0.027516684 -0.46069336 -0.87734747 -3.3103322e-05 0.47985557 6.1387524e-05
0.078649901 -0.023135375 -0.46420899 -nan -nan -nan 0
0.080627441 -0.024658203 -0.46069336 -0.87631613 0.0049934117 0.4817107 4.7130288e-05
0.078869626 -0.017382812 -0.46381837 -0.87918186 0.003034645 0.47647664 0.00013077547
0.078979492 -0.012646675 -0.46362305 -0.87317401 8.8002616e-06 0.48740858 3.2169708e-05
0.080627441 -0.013275146 -0.46069336 -0.87157553 -4.6026032e-09 0.49026117 0
0.078979492 -0.009059906 -0.46362305 -0.87157553 2.6707822e-08 0.49026123 0
0.077941895 -0.00046229362 -0.46166992 -0.80696023 -0.16152997 0.5680874 1.5186837e-05
0.077209473 0.0031042099 -0.46166992 -0.80596292 -0.13756475 0.57576007 0.0011932562
0.07651367 0.0078147892 -0.46166992 -0.65993571 -0.030351689 0.75070882 0.00032809001
0.075724281 0.01192983 -0.46264648 -0.1493538 0.11874745 0.98162746 0.0052543445
0.076049805 0.017433167 -0.46313477 -0.79713744 0.202575 0.56880158 0.012720685
0.075256348 0.029571533 -0.46264648 -0.86580157 -0.17023832 0.47053865 0.0011236853
0.073974609 0.033935547 -0.46362305 -0.88692558 -0.16233003 0.43244892 0.0022318787
0.075256348 0.031005859 -0.46264648 -0.8706941 -0.13908778 0.47174835 0.0016040553
0.073913574 0.037475586 -0.46313477 -0.8677367 -0.13276626 0.47896358 0.0010280691
0.075073242 0.035217285 -0.46166992 -0.87157553 0 0.49026126 0
0.072570801 0.042541504 -0.46362305 -0.89337754 -0.16953886 0.41609275 0.0013743098
0.072387695 0.046722412 -0.46264648 -0.92772466 -0.087435842 0.36288011 0.001939692
0.072692871 0.054107666 -0.46459961 -0.92364889 -0.049186207 0.38007024 0.0052290717
0.073608398 0.056207277 -0.4630371 -0.86460894 -0.0037224663 0.50243151 3.7402453e-05
0.07208252 0.067871094 -0.46069336 -0.89493215 -0.10771897 0.43300477 0.001685392
0.070800781 0.07232666 -0.46166992 -0.8086586 -0.078978762 0.58295262 0.0026482265
0.068786621 0.076009117 -0.46394858 -0.81802958 -0.019623585 0.57484138 0.0014366609
0.071838379 0.083679199 -0.46142578 -nan -nan -nan 9.2590499e-06
0.071524486 0.087733679 -0.46236748 -nan -nan -nan 0
0.11480713 0.089233398 -0.46069336 0.088897347 0.77571547 0.62479013 0.0011716755
0.11621094 0.089233398 -0.46069336 -1.962154e-07 0.72953725 0.68394113 0
0.12219238 0.089416504 -0.46166992 -0.044079416 0.72262257 0.68983597 0.0015946132
0.12760417 0.089233398 -0.46069336 -0.067244999 0.61996591 0.78174192 0.0025118671
0.071756996 0.091328941 -0.46166992 -0.8915593 -0.021417374 0.4523972 0.00071894168
0.09387207 0.093933105 -0.46264648 0.078463607 0.83536953 0.54406005 0.00034784077
0.095275879 0.093933105 -0.46264648 0.078463607 0.83536953 0.54406005 0.00034784077
0.10223389 0.092285156 -0.46166992 0.065230638 0.79410279 0.60427296 0.00044325259
0.10626221 0.093383789 -0.46362305 0.097720124 0.79108691 0.60384786 0.00054716395
0.1138916 0.091064453 -0.46264648 0.085277013 0.7525568 0.65298253 0.00049247476
0.11758423 0.091156006 -0.46313477 0.042685229 0.74185985 0.669195 0.00024621779
0.12272135 0.091247559 -0.46362305 -0.094700553 0.73028624 0.67654556 0.0036517151
0.12785994 0.091770716 -0.463065 -0.17682703 0.69182837 0.70007551 0.006695901
0.14611816 0.091369629 -0.46069336 -0.38698378 0.67316133 0.63015664 0.003593036
0.083679199 0.098022461 -0.46166992 0.73680115 -0.0040338202 0.67609751 2.3003058e-05
0.058227539 0.24462891 -0.46362305 -0.0083610695 -0.72520614 0.68848109 0.00028374325
0.063095093 0.24414062 -0.46264648 -0.3597154 -0.91787875 -0.16764092 0.042789355
0.053329468 0.24511719 -0.46459961 -0.17008106 -0.80934072 0.56217444 0.00099729118
0.058222454 0.24690755 -0.46166992 -0.0075322692 -0.57975346 0.81475711 0.013124495
0.062957764 0.24926758 -0.46166992 0.15401964 0.10153285 0.9828372 0.040096968
0.068257652 0.24890137 -0.46362305 0 0 1 0
0.053578693 0.25146484 -0.46069336 0.09690287 0.012788502 0.99521178 0.0079488438
0.057898626 0.25165474 -0.46101889 0.16237454 -0.21982603 0.96193087 0.011588862
0.062289767 0.25225151 -0.46199545 0.034823488 -0.10706095 0.99364239 0.031456646
0.067213789 0.25212213 -0.46332258 0.069734186 -0.15775688 0.98501271 0.017129783
0.082104489 -0.027059937 -0.45786133 -0.89013779 -0.0021098556 0.45568666 1.9358533e-05
0.08203125 -0.0209198 -0.45666504 -0.89044392 -0.0026711253 0.45508516 4.2412237e-05
0.081675209 -0.017888388 -0.45735678 -0.8963297 0.0059794355 0.44334781 0.00029521633
0.081481934 -0.014602661 -0.45776367 -0.96000004 2.9455341e-08 0.28000006 0
0.081868492 -0.0065765381 -0.45694986 -0.88814569 -0.046232011 0.45723057 9.3689312e-05
0.081900463 -0.0020680428 -0.45629883 -0.72353017 -0.031222897 0.68958634 0.0027365929
0.079040527 0.00096082687 -0.4597168 -0.81071073 -0.16368183 0.56210005 1.4074686e-05
0.080078125 0.0023708344 -0.45776367 -0.82011718 -0.1549654 0.55081177 0.00011456754
0.078857422 0.0052108765 -0.45874023 -0.81661153 -0.15267928 0.55662793 0.0012674727
0.078948975 0.0173769 -0.45718384 -0.88602901 -7.3455685e-06 0.46362984 0.00011114423
0.078491211 0.029190063 -0.45654297 -0.87157559 -3.8369958e-08 0.49026117 0
0.077575684 0.032376099 -0.45786133 -0.87061018 -0.079178847 0.48556012 0.0014432027
0.076171875 0.035064697 -0.4597168 -0.87157547 8.1396578e-08 0.49026126 0
0.074462891 0.044799805 -0.45776367 -0.9042486 -7.85358e-09 0.42700639 0
0.075500488 0.044616699 -0.45556641 -0.88785613 -0.015350158 0.45986515 0.00045013355
0.074462891 0.046234131 -0.45776367 -0.9042486 -3.9267896e-08 0.42700639 0
0.075500488 0.046722412 -0.45556641 -0.88813049 -0.0079913465 0.4595221 0.00049208774
0.07598877 0.056243896 -0.45874023 -0.87281001 0.017215785 0.4877564 0.00010929024
0.073181152 0.064758301 -0.45874023 -0.88621932 -0.011112728 0.46313268 0.00018972317
0.073684692 0.067382812 -0.45739746 -0.89221776 -0.042087313 0.44964001 0.0002087139
0.072174072 0.072967529 -0.45922852 -nan -nan -nan 1.9827752e-05
0.072550453 0.077555336 -0.45760092 -0.95648926 -0.011380461 0.29154551 0.00049638847
0.072998047 0.084411621 -0.45776367 -0.95447993 -2.6301954e-09 0.29827505 0
0.12481689 0.08404541 -0.45556641 -0.01539749 0.76062828 0.64900506 0.00033611746
0.12689209 0.08404541 -0.45556641 -0.1587761 0.73952657 0.65413344 0.0041524172
0.073181152 0.088867188 -0.45874023 -0.87157559 4.2174111e-08 0.49026123 0
0.10955811 0.087036133 -0.45654297 0.093417525 0.78664714 0.61029464 0.0017585804
0.11407471 0.087219238 -0.45776367 0.081221931 0.81108922 0.57925582 0.00016378796
0.11830648 0.086751305 -0.45768228 0.094644584 0.79792309 0.59528238 0.00036602639
0.12423706 0.086730957 -0.45874023 -0.091881573 0.73454201 0.67231375 0.0030416404
0.12719727 0.086779788 -0.45830077 -0.18779147 0.7108677 0.6777916 0.0057486314
0.13110352 0.086853027 -0.45556641 -0.63982624 0.35643157 0.6808663 0.021351855
0.073181152 0.091674805 -0.45874023 -0.87157553 9.9116164e-09 0.4902612 0
0.076950073 0.093231201 -0.45581055 -0.22167997 -0.014896935 0.97500569 0.030398905
0.07409668 0.095336914 -0.45556641 -0.0038976083 -0.63652515 0.77124614 4.2686766e-05
0.076950073 0.095733643 -0.45581055 0.34014446 -0.2533057 0.90561467 0.011057287
0.080963135 0.09664917 -0.45874023 0.72124654 -0.018830145 0.69242245 0.0011278102
0.04838562 0.24475098 -0.45874023 -0.07744503 0.11701951 0.99010539 0.012503554
0.060577393 0.24389648 -0.4597168 -0.88979411 -0.26635185 0.37057137 0.085283317
0.048590086 0.24797364 -0.45932618 0.031132806 0.098728895 0.99462718 0.0064299679
0.052298408 0.24708775 -0.45846123 0.063353986 0.071219116 0.99544668 0.028788079
0.057729084 0.2467041 -0.4597168 0.30024385 -0.12262329 0.94594777 0.13746776
0.060577393 0.24603271 -0.4597168 -0.88979411 -0.26635194 0.37057126 0.085283279
0.07119751 0.24816895 -0.4597168 -0.91871685 0.040498096 0.39283505 0.020490177
0.048492432 0.25170898 -0.4597168 0 0 1 0
0.050628662 0.25170898 -0.4597168 0.28617325 0.074822269 0.95525205 0.022737995
0.083964027 -0.020985922 -0.45296225 -0.88467044 0.0017221855 0.46621373 1.6534048e-05
0.08448486 -0.018060302 -0.4522461 -0.7465378 0.13958135 0.65053701 0.010173735
0.085876465 -0.01717631 -0.45100912 -0.65546316 0.20639662 0.72647679 0.0139511
0.084838867 -0.013744354 -0.45263672 -0.64413577 -1.1001601e-08 0.76491117 0
0.085998535 -0.013713837 -0.45166016 -0.64413577 1.0597061e-08 0.76491117 0
0.084228516 -0.0074558258 -0.453125 -0.67981559 0.022912292 0.73302513 0.00469313
0.08581543 -0.0074144998 -0.45068359 -0.88908601 0.0016565616 0.45773721 4.8257254e-05
0.084631346 -0.0024136067 -0.45302734 -0.67179728 -4.181176e-05 0.74073505 0.001469441
0.085998535 -0.0018482208 -0.45166016 -0.64413571 -3.6658621e-09 0.76491123 0
0.084838867 0.00094604492 -0.45263672 -0.64413577 -3.2444895e-08 0.76491123 0
0.079406738 0.0093612671 -0.45361328 -0.7967332 0.078181416 0.59925276 0.0018172063
0.082194008 0.0074450173 -0.45100912 -0.48848462 -0.15085869 0.85943264 0.0061982549
0.081319176 0.01163737 -0.45133463 -0.86294496 0.026600854 0.50459731 0.00087216141
0.081433102 0.017443847 -0.45244139 -0.88311577 8.7869232e-09 0.46915516 0
0.08124651 0.022877285 -0.45166016 -0.85848975 -0.10307554 0.50236511 0.0056852386
0.079589844 0.027648926 -0.45458984 -0.8812083 -1.8425897e-05 0.47272828 2.064058e-05
0.08114624 0.02746582 -0.45166016 -0.88311571 0 0.46915519 0
0.079589844 0.031158447 -0.45458984 -0.87738168 -0.0049794861 0.47976726 4.5303837e-05
0.08114624 0.031646729 -0.45166016 -0.88311571 7.1795614e-09 0.46915519 0
0.079406738 0.036697388 -0.45361328 -0.86359775 -0.21142098 0.45771179 0.0041886889
0.077514648 0.047049385 -0.45207867 -0.85452646 -0.036767047 0.51810497 0.0037611083
0.077636719 0.057479858 -0.45166016 -0.90588439 0 0.42352504 0
0.076934814 0.063751221 -0.45166016 -0.88311577 -7.8748286e-08 0.46915516 0
0.07611084 0.066375732 -0.45288086 -0.88454372 -0.067228928 0.46158719 0.00015596542
0.073974609 0.074035645 -0.45458984 -0.9210096 -0.11406556 0.37246522 0.00031732858
0.153125 0.073828124 -0.45185548 0.25839651 0.057957649 0.96429878 0.014847015
0.15755208 0.073669434 -0.45263672 0 0 1 0
0.074432373 0.077972412 -0.45117188 -0.87883222 4.9073956e-06 0.47713092 1.5239468e-05
0.1338501 0.078918457 -0.45068359 -1.6633368e-08 0.52409738 0.85165834 0
0.1373698 0.078918457 -0.45068359 -0.19598819 0.19881044 0.9602412 0.02436466
0.15333775 0.07674735 -0.45193917 0.10853413 -0.14578189 0.98334527 0.016667865
0.15730794 0.077056885 -0.45198569 0.1186458 -0.082142919 0.98953307 0.026963344
0.16040039 0.079284668 -0.45263672 0.27494484 -0.051660914 0.96007109 0.018567143
0.074707031 0.080322266 -0.45068359 -0.87697929 -0.004987882 0.48050243 5.0991792e-05
0.10754395 0.083221436 -0.45117188 -3.0950211e-08 0.78868449 0.61479819 0
0.11114502 0.083312988 -0.45166016 -8.3430194e-08 0.83205038 0.55470008 0
0.12761773 0.081665039 -0.45285374 -0.07646393 0.6873982 0.72224438 0.0054153875
0.13260593 0.082266003 -0.45241135 -0.19483104 0.38482773 0.90219086 0.020724654
0.1369296 0.082436301 -0.45174894 -0.2652078 0.19130982 0.94502133 0.032686006
0.14253235 0.083839417 -0.45166016 -0.241198 0.040060315 0.96964878 0.01891361
0.14849176 0.082689077 -0.45166016 -0.2246082 0.2847122 0.93192822 0.036278129
0.15198974 0.082434081 -0.45146483 0.079408959 0.1555725 0.98462754 0.01215606
0.15718587 0.080505371 -0.45166016 0.092472486 -0.01737513 0.99556363 0.0061890539
0.093200684 0.08770752 -0.45263672 0.19023326 0.6948359 0.69355202 0.00035494874
0.10906982 0.085266113 -0.45458984 0.04684709 0.7982797 0.60046232 0.00203525
0.11117554 0.085266113 -0.45458984 0.015895858 0.8012836 0.5980736 0.0023834608
0.13256836 0.086578369 -0.45410156 -0.41347775 0.42128992 0.80718708 0.027455807
0.13796997 0.087562561 -0.45373535 -0.24288115 0.11418413 0.96331239 0.016249692
0.14672852 0.085083008 -0.45361328 0.45064706 0.46390662 0.76269782 0.14998743
0.078186035 0.090881348 -0.45458984 -0.18833041 0.32289988 0.92750597 0.023309644
0.073791504 0.097696938 -0.45361328 -9.6956341e-05 -0.63754314 0.77041471 3.0051864e-05
0.075195312 0.097696938 -0.45361328 0.10572374 -0.63050246 0.76895326 0.0064999796
0.074157715 0.10003662 -0.45166016 1.0135602e-08 -0.64413565 0.76491129 0
0.044342041 0.24353027 -0.45361328 0.83903688 -0.041966137 0.54245377 0.015995268
0.044433594 0.24682617 -0.45458984 0.83903688 -0.041966233 0.54245377 0.015995301
0.045837402 0.24682617 -0.45458984 0.83903688 -0.041966211 0.54245377 0.015995301
0.071105957 0.24829102 -0.45458984 -0.67398232 -0.73874718 -0.00065351516 0.015154287
0.083618164 -0.047937013 -0.44931641 -0.32522455 -0.27580041 0.90452367 0.024932396
0.080749512 -0.041061401 -0.44555664 -0.56900877 0.078566991 0.8185696 0.023047235
0.081644692 -0.038543701 -0.44555664 -0.40296322 0.251486 0.87998599 0.027321076
0.086242676 -0.031425476 -0.44555664 -0.72326452 0.11039613 0.68168992 0.0077778865
0.084228516 -0.028244019 -0.44970703 -0.90424865 1.6195392e-08 0.42700627 0
0.085754395 -0.028055826 -0.4465332 -0.8185187 -0.03953274 0.57311809 0.0022565757
0.085632324 -0.02130127 -0.44970703 -0.89682794 0.1898738 0.39955929 0.00498161
0.086669922 -0.019126892 -0.44750977 -0.94645047 0.10983393 0.30359179 0.0013726196
0.086853027 -0.0073814392 -0.44873047 -0.88311571 5.9024088e-09 0.46915519 0
0.086853027 -0.0046081543 -0.44873047 -0.91612798 0.091668844 0.39026457 0.0041479166
0.082946777 0.012018204 -0.44818115 -0.90737939 -0.0058330344 0.42027211 0.00054054847
0.083465576 0.017593384 -0.44921875 -0.68783641 -0.053286824 0.72390717 0.0058828164
0.083343506 0.02195994 -0.44844565 -0.75300491 -0.12747721 0.64554876 0.0071707438
0.085083008 0.020950317 -0.4465332 -0.67491788 -0.13651143 0.72515553 0.01207159
0.083190918 0.027913412 -0.44763184 -0.90162551 -0.0049643745 0.43248916 0.00022448327
0.083282471 0.032104492 -0.44812012 -0.89269823 0.022431947 0.45009628 0.002518435
0.07989502 0.039764404 -0.44873047 -0.70710683 0 0.70710683 0
0.082629398 0.038488768 -0.44677734 -0.7493636 -0.13407211 0.64844352 0.0056014508
0.07989502 0.04253133 -0.44873047 -0.70710677 0 0.70710677 0
0.081644692 0.042353313 -0.44669595 -0.70321208 -0.093900152 0.70475209 0.0089465603
0.087646484 0.043609619 -0.44555664 -0.43524903 -0.10233623 0.8944751 0.032613121
0.079488121 0.04720052 -0.449056 -0.87568897 -0.018682314 0.48251396 0.0021671108
0.081705727 0.045959473 -0.44588217 -0.7656548 -0.21091489 0.60769027 0.0092192115
0.087041683 0.046902742 -0.4457342 -0.20879693 0.11959036 0.97061932 0.030710794
0.079193115 0.052241009 -0.4486084 -0.90157771 -3.0055644e-05 0.43261731 6.267416e-05
0.07924398 0.057189941 -0.44759116 -0.93285286 -0.014185545 0.35997811 0.00070714642
0.078869626 0.061810303 -0.44765624 -0.91479796 -0.042111073 0.40171039 0.0008625621
0.07800293 0.069091797 -0.44555664 -0.96000004 -2.210141e-09 0.27999997 0
0.077484131 0.072723389 -0.4465332 -0.79111546 -0.22741811 0.56781805 0.0034473788
0.13372803 0.073913574 -0.44555664 0 0.75257671 0.65850461 0
0.13586426 0.073913574 -0.44555664 5.6952135e-08 0.75257677 0.65850455 0
0.14685059 0.073913574 -0.44555664 0.090525828 0.68079603 0.72685754 0.0016107429
0.16170247 0.074401855 -0.44873047 0 0 1 0
0.076337539 0.077976771 -0.4474749 -0.89065307 0.0016074554 0.45468053 0.0019968173
0.10294596 0.079528809 -0.44620767 -0.16478164 0.74207062 0.64975232 0.0042316881
0.10691325 0.079406738 -0.44555664 0.0025334624 0.90432185 0.4268437 1.7611996e-05
0.12799072 0.078735352 -0.44970703 0.048097309 0.72546673 0.68657458 0.00047300034
0.13284302 0.076812744 -0.44842529 0.063854918 0.66940671 0.74014676 0.0016495391
0.13773601 0.07725016 -0.44897461 -0.35109219 0.512326 0.78374511 0.015747892
0.14250045 0.077398129 -0.44770953 -0.036788546 0.34014636 0.93965262 0.0022067281
0.14686802 0.078194752 -0.4488351 0.15665732 0.35705191 0.92085415 0.011179144
0.15167236 0.078735352 -0.44970703 -0.69303101 -0.024756268 0.72048265 0.070355341
0.16170247 0.076507568 -0.44873047 0 0 1 0
0.07800293 0.080810547 -0.44555664 -0.76503623 0.17350587 0.62017363 0.004964585
0.094146729 0.081787109 -0.44702148 0.11019261 0.66181552 0.74152398 0.0016579186
0.096130371 0.080993652 -0.4465332 0.11019247 0.66181558 0.74152398 0.0016579531
0.10347494 0.081359863 -0.44873047 -2.2595122e-08 0.76645279 0.64230072 0
0.10764567 0.081359863 -0.44873047 -0.0060204458 0.77793586 0.62831479 3.2267977e-05
0.13932292 0.082010902 -0.44970703 -0.43979242 -0.17443766 0.88099611 0.080195628
-0.11676025 -0.11535645 -0.44262695 -0.044761799 -0.28292498 0.95809704 0.048227619
-0.12036133 -0.11279297 -0.44067383 0.3621729 -0.20364898 0.90959215 0.017202985
-0.1171129 -0.11191813 -0.44165039 0.18036677 -0.061715595 0.98166144 0.039886136
-0.11286621 -0.11170654 -0.44125977 -0.22043176 0.12338986 0.96756637 0.012054605
-0.11697824 -0.10911342 -0.4419294 0.22854099 0.0090822829 0.97349191 0.039147265
-0.11219482 -0.10790405 -0.44125977 -0.2512424 -0.0059357532 0.967906 0.017891223
-0.10836182 -0.10707398 -0.44067383 -0.092773452 0.10921294 0.98967957 0.012011875
0.20373535 -0.1026001 -0.44067383 -0.8573758 -0.44163951 0.26431304 0.0066566048
0.2010498 -0.099182129 -0.44360352 -0.8573814 -0.44162753 0.26431468 0.0066562882
0.08605957 -0.050872803 -0.44116211 -0.76771086 0.2406449 0.59389406 0.0098685827
0.084655762 -0.045776367 -0.44458008 -0.73298097 -0.19994937 0.65019941 0.040076919
0.086405434 -0.047531128 -0.44165039 -0.7856431 0.081754856 0.61325449 0.015499077
0.083259583 -0.041381836 -0.44348145 -0.61592191 0.054588974 0.78591359 0.0080361413
0.086042129 -0.042345319 -0.44151089 -0.62991059 -0.10762767 0.7691741 0.015508136
0.083892822 -0.037841797 -0.4440918 -0.63025385 0.28587306 0.72184259 0.019190276
0.086268835 -0.037680488 -0.44165039 -0.64084804 0.23455019 0.73095828 0.015634252
0.084655762 -0.034790039 -0.44458008 -0.67883122 0.47721472 0.55808103 0.012490347
0.088336185 -0.032154847 -0.442334 -0.765374 0.2025346 0.61088663 0.012578016
0.088183597 -0.027272034 -0.44291991 -0.70830405 -0.044701938 0.70449072 0.0029932798
0.088342287 -0.023138428 -0.44243163 -0.70346063 5.2197517e-09 0.71073413 0
0.088378906 -0.019592285 -0.44262695 -0.64413583 3.5473697e-08 0.76491117 0
0.088043213 -0.012798309 -0.4440918 -0.9450016 -0.10624656 0.30932772 0.007300741
0.088195801 -0.0079479218 -0.44165039 -0.91290778 -0.1583721 0.37618834 0.0070501328
0.085449219 0.0036525726 -0.44165039 -0.96711618 0.074852906 0.24307078 0.00079661747
0.085693359 0.0077667236 -0.44262695 -0.98351842 0.0042610061 0.18075804 0.0021875505
0.084472656 0.013267517 -0.44360352 -0.93091977 -0.17758685 0.31914163 3.4981338e-05
0.085449219 0.01184082 -0.44165039 -0.95284933 -0.040729709 0.30069807 0.0016707068
0.086364746 0.022125244 -0.44262695 -0.90281975 -0.0069841361 0.42996258 0.00060837477
0.084655762 0.027038574 -0.44458008 -0.87886292 -0.084087282 0.46960565 0.0016465473
0.084655762 0.032531738 -0.44458008 -0.95505792 0.09731888 0.27998832 0.00044190697
0.08644104 0.03263092 -0.44140625 -0.21336417 0.029526629 0.9765265 0.023517968
0.084472656 0.03793335 -0.44360352 -0.68142825 0.02868735 0.73132241 0.0048107714
0.086990356 0.036808014 -0.44238281 -0.44376057 0.078744091 0.8926791 0.025357928
0.083809987 0.042497907 -0.44416156 -0.65326947 -0.031887624 0.75645363 0.0027678781
0.088806152 0.044204712 -0.44458008 -0.64413577 -9.8850643e-09 0.76491123 0
0.082336426 0.048171997 -0.44311523 -0.6930989 -0.31910333 0.64636439 0.027912432
0.088806152 0.046264648 -0.44458008 -0.58251727 0.26359695 0.76888901 0.022154702
0.081837974 0.05210368 -0.44165039 -0.7124176 -0.3915177 0.58238727 0.0088616638
0.080871582 0.059059143 -0.44262695 -0.89442724 0 0.44721362 0
0.080895998 0.062115479 -0.44204101 -0.91509497 -0.12282108 0.38407826 0.0028461022
0.079589844 0.068054199 -0.44116211 -0.90891248 -0.05928636 0.41275075 0.002860964
0.079093933 0.072471619 -0.44213867 -0.84792203 0.037331894 0.52880478 0.0054403008
0.08001709 0.074645996 -0.44165039 -0.69756103 0.28879812 0.65574718 0.00806739
0.13421631 0.071350098 -0.44262695 0.0022473787 0.75552672 0.655114 1.6068067e-05
0.1375885 0.071754456 -0.44299316 -0.0081003727 0.70306808 0.71107638 0.00067403243
0.14154924 0.071637832 -0.44262695 -0.084542222 0.63951504 0.76411593 0.0089615239
0.078259274 0.07667236 -0.44399413 -0.82788104 0.12424404 0.54697037 0.0090835709
0.081481934 0.07722982 -0.44099936 -0.50383902 0.18727325 0.8432526 0.0021916355
0.085968018 0.078552246 -0.44067383 2.0669033e-09 0.67394304 0.73878324 0
0.09362793 0.079223633 -0.44458008 0.1101926 0.66181552 0.74152398 0.0016579301
0.10232544 0.077026367 -0.44360352 -0.26210529 0.73842216 0.62131596 0.0024295673
0.10754395 0.077514648 -0.44262695 4.9536858e-08 0.84003937 0.54252547 0
0.082794189 0.082183838 -0.44311523 -0.27293447 0.50441802 0.81918812 0.0070355907
-0.12792969 -0.11185031 -0.43598092 0.1187319 -0.29741034 0.94733834 0.019126542
-0.1234436 -0.11187744 -0.43701172 0.21511191 -0.59177369 0.77687246 0.01422118
-0.1104126 -0.11242676 -0.43908691 -0.10782202 0.50375819 0.85708928 0.043578789
-0.10717773 -0.11161974 -0.43877494 -0.083544977 0.31170031 0.94650054 0.0096294992
-0.10375977 -0.11047363 -0.43969727 0 0 1 0
-0.13000488 -0.10974121 -0.43652344 -0.14440519 0.44036052 0.88613188 0.032798693
-0.12866211 -0.10974121 -0.43652344 -2.5927761e-08 0.66436636 0.74740714 0
-0.12246704 -0.10961914 -0.43603516 0.39394575 -0.23826969 0.88771296 0.0076186443
-0.10580444 -0.10845947 -0.43969727 -0.17152722 0.079436325 0.98197162 0.010716731
-0.10375977 -0.10845947 -0.43969727 0 0 1 0
0.090576172 -0.057777405 -0.43652344 -0.74263585 0.18272994 0.64428395 0.02293591
0.088387623 -0.052337646 -0.43847656 -0.21236256 0.0089220237 0.97715026 0.021572316
0.091262817 -0.052401226 -0.43660483 -0.63514483 -0.06198008 0.76990217 0.0085736942
0.088457383 -0.047136579 -0.43882534 -0.56511694 0.00083355274 0.82501042 0.0062778168
0.09113159 -0.047402956 -0.4366211 -0.64911062 -2.1122519e-06 0.76069403 2.9387233e-05
0.088409424 -0.042505901 -0.43908691 -0.69382215 0.00023517464 0.7201463 0.00083290553
0.091352984 -0.042746805 -0.43643466 -0.65046233 -9.0707881e-06 0.75953853 3.7474281e-05
0.088633217 -0.038208008 -0.43908691 -0.73687869 0.085833393 0.67055374 0.0057841144
0.090861 -0.037787542 -0.43684897 -0.67833108 -0.042956419 0.73349965 0.0026937211
0.091451012 -0.031533137 -0.43744576 -0.88349289 0.12243772 0.45216075 0.0079451241
0.091210939 -0.027755737 -0.4375 -0.8600859 -0.064307526 0.50607979 0.0090668704
0.09073893 -0.022455851 -0.43619791 -0.84729117 -0.1503353 0.50940847 0.0074265767
0.089904785 -0.017974854 -0.43652344 -0.89074165 -0.16970609 0.42163882 0.00017670599
0.089172363 -0.0099487305 -0.43969727 -0.9129079 -0.15837206 0.37618822 0.0070502041
0.086242676 0.00227197 -0.43847656 -0.97354108 -0.011682044 0.22821331 6.741075e-05
0.086242676 0.0090484619 -0.43847656 -0.97014254 0 0.24253564 0
0.086535648 0.011997986 -0.43730468 -0.96187824 -0.032738674 0.27151144 0.001136808
0.086425781 0.028091431 -0.43969727 -0.60723794 0.015952695 0.79435986 0.041602109
0.084106445 0.053578693 -0.43684897 -0.80583358 -0.27527624 0.52426636 0.014495024
0.083129883 0.05758667 -0.43652344 -0.88459802 -0.0388688 0.46473166 0.0062835868
0.08259277 0.062164307 -0.43652344 -0.90020007 -0.18572035 0.39388826 0.0065004542
0.081396483 0.067407228 -0.43730468 -0.89846486 -0.0022004081 0.43903989 8.0058613e-05
0.13793945 0.067596436 -0.43811035 -0.0012342806 0.76600379 0.6428349 8.7493536e-05
0.14261882 0.067179359 -0.43758139 -0.038278345 0.7677809 0.63956797 0.0014613438
0.14611816 0.067687988 -0.43790689 -0.11558084 0.77050382 0.6268692 0.0045218663
0.081311032 0.071643069 -0.43833008 -0.82392579 0.22435974 0.52039313 0.014078599
0.086975098 0.074951172 -0.43554688 -0.57579488 0.65931493 0.48349151 0.0036856825
0.10498047 0.073913574 -0.4375 -0.16557954 0.85165733 0.49725574 0.0013469124
0.1060791 0.073791504 -0.43652344 -0.16557935 0.85165739 0.49725574 0.0013469124
0.082397461 0.077026367 -0.43969727 -0.38013452 0.39517102 0.83626407 0.04542239
0.086914062 0.076843262 -0.43847656 0.036750659 0.81906664 0.57252008 0.0006267947
0.10614014 0.075622559 -0.43969727 -0.14688346 0.85216922 0.50222796 0.001407086
0.032623291 0.23486328 -0.4375 0.1548311 -0.0044878647 0.98793072 0.014765012
0.03352356 0.23777263 -0.43741861 0.062470783 -0.29247195 0.95423138 0.019550331
0.037319947 0.2380127 -0.43852538 0.35753718 -0.28285494 0.89003384 0.026684439
-0.10827637 -0.1182251 -0.43066406 -0.0098286411 -0.4348653 0.90044188 0.014945189
-0.1260376 -0.10858154 -0.43457031 0.0097590042 -0.22327922 0.97470564 0.018900355
0.088867188 -0.065795898 -0.43164062 0 0 1 0
0.091471352 -0.065734863 -0.43131509 -0.3550702 0.036475796 0.93412775 0.013318491
0.092238203 -0.062316895 -0.43246695 -0.31447366 0.44665751 0.8376177 0.025155434
0.096313477 -0.060531616 -0.43212891 -0.45475209 0.3689869 0.81058574 0.023335448
0.09376356 -0.057864718 -0.43435329 -0.32862517 0.26008534 0.90794331 0.028087305
0.096191406 -0.057525635 -0.43457031 0.065354258 0.14237893 0.98765224 0.015673598
0.10127767 -0.055338543 -0.43326822 -0.36067402 -0.35746968 0.86146951 0.02612154
0.09375 -0.052032471 -0.43359375 -0.69993716 -0.11718681 0.70452487 0.012324505
0.098286949 -0.051605225 -0.43196616 -0.59526283 -0.36586893 0.71540344 0
0.1010376 -0.053070068 -0.43222657 -0.39000887 -0.51841158 0.76101416 0.012985687
0.093976699 -0.047668457 -0.43317524 -0.69182628 0.064773753 0.71915281 0.005632387
0.09552002 -0.047782898 -0.43164062 -0.71179682 0.017681401 0.70216286 0.0040556286
0.093811035 -0.042236328 -0.43391928 -0.77823162 -0.054925505 0.62557083 0.0051984522
0.092947826 -0.037388392 -0.43373325 -0.82851368 -0.12659118 0.54547191 0.0085981144
0.092163086 -0.033996582 -0.43457031 -0.89710462 0.20318086 0.39232749 0.0047041648
0.093475342 -0.027357101 -0.43286133 -0.89519775 -0.050912593 0.44275156 0.0091501642
0.092817031 -0.023383005 -0.43317524 -0.79712552 -0.14758119 0.58550036 0.009979588
0.091094971 -0.015140533 -0.43261719 -0.90548259 -0.13579802 0.40206996 0.0037318075
0.087524414 0.0042362213 -0.43164062 -0.96074313 0.11216445 0.25375536 0.00092399202
0.087768555 0.0075874329 -0.43261719 -0.89978206 0.15911828 0.40629259 0.0004680698
0.088409424 0.011600494 -0.43261719 -0.90209401 -0.1333283 0.41042659 0.00065025955
0.088317871 0.016630555 -0.4314453 -0.91094679 0.0019376387 0.41251934 0.00011604293
0.089508057 0.024909973 -0.43164062 -0.84076536 0.05121861 0.53897154 0.007203347
0.088928223 0.027598063 -0.43196616 -0.90397894 -0.19115323 0.38246897 0.0035318632
0.087768555 0.03232193 -0.43261719 -0.8646667 5.8309062e-08 0.50234598 0
0.08581543 0.052230835 -0.43139648 -0.92612284 -0.10441964 0.36248171 0.0020708165
0.084320068 0.0582784 -0.433431 -0.91396481 -0.11747944 0.38841596 0.0045574028
0.085083008 0.056396484 -0.43261719 -0.90831488 -0.087670006 0.40899634 0.0041765254
0.084144592 0.062839508 -0.43225098 -0.91436249 -0.14268163 0.37892374 0.0046232077
0.13785808 0.062754311 -0.43196616 0.030485613 0.77678984 0.62902164 0.000113154
0.14251709 0.063079834 -0.43261719 -0.083647281 0.75581264 0.64942306 0.0035383857
0.14709473 0.063354492 -0.43136162 -0.39623767 0.62924659 0.66861379 0.010840553
0.083389282 0.06703949 -0.43347168 -0.8589114 0.022845814 0.51161444 0.0026508295
0.098205566 0.068908691 -0.43164062 0.14293723 0.83705121 0.52812338 0.020132013
0.14689128 0.065226234 -0.43359375 -0.35716739 0.74238563 0.56682879 0.0080159381
0.08392334 0.070556641 -0.43359375 -0.64413571 0 0.76491129 0
0.088684082 0.072753906 -0.43066406 -0.031014845 0.58858448 0.80784065 0.00018904892
0.10534668 0.071899414 -0.43359375 -0.16557881 0.85165745 0.49725577 0.0013467071
-0.10803223 -0.1159668 -0.42944336 -0.022212526 -0.23341724 0.97212291 0.021551214
-0.10803223 -0.11462402 -0.42944336 0 0 1 0
0.20794678 -0.10040283 -0.42553711 0.0079011749 0.68004781 0.73312521 1.3260166e-05
0.093523301 -0.066632949 -0.42832729 -0.5323922 0.16769697 0.82972062 0.037107669
0.09375 -0.064147949 -0.42944336 -0.83552355 0.041227851 0.54790574 0.0073705316
0.09664917 -0.048171997 -0.42895508 -0.92014581 0.0019497364 0.3915711 2.8647573e-05
0.094848633 -0.027580261 -0.4284668 -0.94328022 0.21946301 0.24911536 0.004006336
0.095092773 -0.025650024 -0.42944336 -0.93368536 0.14708155 0.32649457 0.0044600852
0.09375 -0.020339966 -0.42944336 -0.87352741 -0.24950942 0.41796523 0.0043132547
0.093395993 -0.016288757 -0.42768556 -0.64050305 -0.021791138 0.76764631 0.012922818
0.09552002 -0.016860962 -0.42553711 -0.034082308 0.15756059 0.98692095 0.016829209
0.093109131 -0.01253891 -0.42749023 -0.67245662 0.050542574 0.73840874 0.010051669
0.09552002 -0.014892578 -0.42553711 0 0 1 0
0.091339111 -0.0057125092 -0.42749023 -0.85320371 -0.21805865 0.47380784 0.0059481063
0.089213051 -0.00087094307 -0.42879233 -0.73985624 -0.30600694 0.59914321 0.0093352823
0.091267906 -0.0021820068 -0.42618814 -0.72056139 -0.10165375 0.6858992 0.01060243
0.088989258 0.0028773944 -0.42781577 -0.68306571 -0.053116586 0.72842282 0.0017016974
0.090316772 0.0028620958 -0.42578125 -0.88183701 -0.042416535 0.46964288 0.013004774
0.089355469 0.0061798096 -0.42749023 -0.83110172 0.21332914 0.51357633 0.013333362
0.090893552 0.0077384948 -0.42612305 -0.69552755 0.17471623 0.69693303 0.010257272
0.08972168 0.012837728 -0.42911783 -0.86302644 -0.14169957 0.48487785 0.0088082384
0.091064453 0.012383597 -0.42665318 -0.87203634 -0.078636654 0.48308277 0.011831659
0.089599609 0.016124725 -0.4284668 -0.90147638 -0.057717934 0.42896265 0.010478911
0.091003418 0.017348289 -0.42602539 -0.67555308 -0.030694753 0.73667216 0.0025700021
0.089782715 0.021476746 -0.42944336 -0.87031126 0.19898815 0.45051309 0.0033967835
0.092089847 0.023580933 -0.426709 -0.76973468 0.053074926 0.63615376 0.012157892
0.089782715 0.028778076 -0.42944336 -0.90686822 -0.25047913 0.33889568 0.0040661953
0.091570176 0.027624948 -0.42637417 -0.75456268 -0.27305478 0.59672135 0.016316015
0.089050293 0.031881712 -0.4284668 -0.81807137 -0.28540146 0.49930459 0.011974512
0.090270996 0.031791687 -0.42553711 -0.62652063 -0.28618866 0.72496068 0.027110018
0.088596888 0.036860876 -0.42651367 -0.8772555 -0.12859577 0.46247801 0.011080272
0.088928223 0.040344238 -0.42553711 -0.90765309 -0.13573225 0.3971684 0.0081007574
0.08770752 0.04761963 -0.42709962 -0.93091905 -0.19404888 0.30941024 0.0056566759
0.087371826 0.052942913 -0.42635092 -0.92173362 -0.047857959 0.38485938 0.0017538359
0.15704346 0.054931641 -0.42651367 0.37885857 0.26549935 0.88655305 0.0082906727
0.086730957 0.057455443 -0.42749023 -0.9035868 0.012369195 0.42822647 0.00209806
0.13952637 0.059051514 -0.42749023 -0.001970845 0.77338099 0.63393855 7.6844535e-06
0.14254761 0.058242798 -0.42651367 -0.00026778298 0.75020653 0.6612035 1.0985572e-06
0.14770508 0.058204651 -0.42626953 -0.075993843 0.61063665 0.78825623 0.0040179985
0.15236816 0.056909181 -0.42553711 0.0028307077 0.14382976 0.98959839 0.0096226074
0.086669922 0.062299091 -0.42724609 -0.70842421 -0.020462938 0.70549023 0.0047979383
0.13891602 0.060638428 -0.42944336 -0.012930322 0.79177427 0.61067694 0.00022065372
0.14221191 0.060638428 -0.42944336 -0.032462366 0.77521861 0.63085836 0.0019744353
0.14772542 0.060999554 -0.42879233 -0.27628177 0.64488029 0.71259934 0.015338044
0.087931313 0.067286171 -0.42749023 -0.42752665 0.4391863 0.79014951 0.016500238
0.091018677 0.067382812 -0.42602539 -0.20095477 0.60132664 0.77331978 0.011142683
0.089782715 0.071228027 -0.42944336 -0.031014793 0.58858442 0.80784065 0.00018902325
0.091796875 0.071228027 -0.42944336 -0.0229767 0.58782136 0.80866444 0.00021677591
0.023849487 0.1192627 -0.42553711 0 0 1 0
0.027447511 0.11817627 -0.42631835 -0.1433828 -0.69082493 0.70866239 0.035643123
0.032126531 0.1180013 -0.42781577 0.21411058 -0.039530277 0.97600925 0.046448573
0.023486327 0.12298584 -0.42612305 -0.085960001 0.12870544 0.98795033 0.012113694
0.027563242 0.12261024 -0.42591271 0.11500951 -0.047976237 0.99220514 0.018019054
0.03257921 0.12231445 -0.42792428 0.18941054 -0.47762367 0.85790402 0.017233329
0.036783855 0.12145996 -0.42553711 -0.54778063 0.062814496 0.83426058 0.018666284
0.023454938 0.12773786 -0.42693219 -0.43049663 -0.020423289 0.90236109 0.016282644
0.027795156 0.12736003 -0.4256185 -0.14346331 -0.16109321 0.97645652 0.021140175
0.032571968 0.12687545 -0.42633611 0.19773908 -0.4307895 0.88052237 0.025381153
0.035186768 0.12512207 -0.42749023 -0.26146343 -0.85083562 0.45575833 0.0093186609
0.20422363 -0.10180664 -0.42041016 0.13906135 0.96598756 0.21801381 0.0008378335
0.2074585 -0.10144043 -0.42456055 0.0079012141 0.68004787 0.73312521 1.3243361e-05
0.2109782 -0.10288493 -0.42325845 0.010463111 0.68203402 0.73124558 6.5659865e-06
0.095703125 -0.070617676 -0.42041016 -0.3835004 0.30907366 0.8702879 0.039490066
0.096214294 -0.066955566 -0.42214966 -0.79187173 0.17458217 0.58520097 0.014901781
0.096679688 -0.064331055 -0.42211914 -0.76155049 0.035995238 0.64710522 0.0091431383
0.096130371 -0.036987305 -0.42260742 -0.98793572 0.037538603 0.15024665 0.0010227209
0.095947266 -0.031036377 -0.42163086 -0.93528682 -0.017968539 0.35343421 0.00025215172
0.095092773 -0.027259827 -0.42358398 -0.99811262 -0.050612479 -0.034778789 0.0013610563
0.095184326 -0.02204895 -0.42407227 -0.98145467 -3.6593372e-06 -0.19169445 1.4083447e-05
0.095275879 -0.018798828 -0.42456055 -0.21265264 0.23352034 0.94881356 0.021359418
0.096664429 -0.013093948 -0.42041016 -0.24255238 0.16127875 0.95663863 0.042081814
0.093000136 -0.0077029639 -0.42274693 -0.57939589 -0.046902876 0.81369567 0.044743013
0.096984863 -0.0095214844 -0.42041016 -0.80478114 -0.4263013 0.41303086 0.016173515
0.093322754 -0.002383848 -0.4230957 -0.71286541 -0.11161131 0.69236249 0.0064482256
0.092412315 0.0025187731 -0.4229126 -0.69186974 -0.069030672 0.71871489 0.026682498
0.092224121 0.0074462891 -0.42456055 -0.53142571 0.16157566 0.83155292 0.02195034
0.092814125 0.012434642 -0.42325845 -0.87547135 -0.071406752 0.47796556 0.0036278905
0.092895508 0.016551971 -0.42260742 -0.91759562 -0.002458473 0.39750743 0.0001223572
0.093408205 0.022396851 -0.42436522 -0.52505291 0.25683513 0.81139094 0.041240409
0.095275879 0.023849487 -0.42456055 0.064930491 0.14002265 0.98801708 0.013288898
0.093261719 0.027442932 -0.42431641 -0.46691227 -0.057366949 0.88244092 0.021813747
0.095560707 0.026087442 -0.42179361 -0.70242816 -0.11144695 0.70297515 0.022230478
0.092320763 0.032800037 -0.42295328 -0.66520399 -0.28315318 0.69088924 0.021880418
0.08984375 0.038192749 -0.42358398 -0.68517876 -0.26197791 0.67963052 0.024121501
0.091229245 0.037145995 -0.42214355 -0.73248446 -0.2611295 0.62871122 0.017305639
0.089233398 0.042384557 -0.42344448 -0.83309489 -0.090857573 0.54561687 0.00548077
0.090698242 0.041915894 -0.42163086 -0.6643638 -5.5279408e-09 0.74740934 0
0.089141846 0.047340393 -0.42346191 -0.89553422 -0.10329837 0.4328371 0.007124403
0.090515137 0.047019958 -0.42041016 -0.90887076 -0.021305185 0.41653338 0.0013399738
0.08895874 0.052471161 -0.42260742 -0.89914137 -0.043372743 0.43550393 0.0037093023
0.090515137 0.050262451 -0.42041016 -0.83839923 -0.2747862 0.47072211 0.0078929411
0.13922119 0.054168701 -0.42041016 -5.4583937e-10 0.81602448 0.57801735 0
0.14111328 0.054168701 -0.42041016 -4.3667145e-09 0.81602454 0.57801735 0
0.15252686 0.053192139 -0.4230957 0.097492263 0.50760162 0.8560583 0.014827638
0.089035034 0.057750702 -0.42297363 -0.83811557 0.16707146 0.51927769 0.0099949855
0.090576172 0.058115643 -0.42081705 -0.81773692 0.26257893 0.51220953 0.013280598
0.13208008 0.055480957 -0.42041016 0.071045421 0.83041596 0.55259556 0.00098045229
0.13861084 0.055725098 -0.42260742 -8.9327408e-09 0.81602454 0.57801729 0
0.14263916 0.055801392 -0.4230957 3.6768505e-08 0.79936135 0.60085058 0
0.14904785 0.055999756 -0.42456055 -2.0243462e-09 0.56279087 0.82659936 0
0.089184567 0.062231444 -0.42416993 -0.64281011 0.18492213 0.74337006 0.01077302
0.09242554 0.063027956 -0.42165527 -0.48434964 0.4540908 0.74780142 0.019766131
0.097961426 0.063720703 -0.42081705 0.020574693 0.72776812 0.68551457 0.00017064919
0.10009766 0.064880371 -0.42260742 0.10596767 0.76514578 0.635077 0.00030528122
0.090026855 0.065185547 -0.42456055 -0.33388025 0.40786454 0.84980619 0.022459809
0.1005249 0.066467285 -0.42456055 0.10596743 0.7651459 0.63507688 0.00030515814
0.02772522 0.11895752 -0.42456055 -0.87345761 -0.33762878 0.35082558 0.084319562
0.028381348 0.12939453 -0.42456055 -0.10459948 -0.38062045 0.91879648 0.043694999
0.031661987 0.12939453 -0.42456055 -0.056510977 -0.43405315 0.89911312 0.04423292
0.029037476 0.1307373 -0.42456055 0 0 1 0
0.031005859 0.1307373 -0.42456055 0 0 1 0
0.20355225 -0.10275269 -0.41650391 -0.0057502659 0.97232598 0.23355757 0.0038108455
0.20629883 -0.10314941 -0.41552734 -0.079790048 0.97218299 0.22021316 0.0073535074
0.094787598 -0.080200195 -0.41650391 0.18107972 0.48709443 0.85437065 0.044515092
0.097290039 -0.082125574 -0.41721413 -0.47506583 0.3769747 0.79511172 0.04322112
0.094787598 -0.078918457 -0.41650391 0.35875785 0.40201038 0.84242541 0.024961842
0.097745456 -0.077242337 -0.41650391 -0.51096541 0.18838111 0.83870542 0.029523091
0.098282881 -0.07216797 -0.41754559 -0.61454332 0.28427705 0.73588258 0.021797065
0.10068766 -0.071146645 -0.41617838 -0.60229611 0.36636552 0.70923603 0.027852891
0.098395452 -0.067335337 -0.41899955 -0.6379078 0.05648461 0.76803857 0.014110461
0.10111491 -0.068101674 -0.41672093 -0.61307573 0.044572823 0.78876567 0.023725199
0.098802358 -0.06251017 -0.41661242 -0.58286476 -0.38880688 0.71351087 0.015013501
0.10095215 -0.063995361 -0.41552734 -0.67060465 -0.35356987 0.65213323 0.018606778
0.097549438 -0.059234619 -0.41601562 -0.58933085 0.19323957 0.78444093 0.14826359
0.099121094 -0.046340942 -0.41845703 -0.83551186 -0.37376356 0.40276629 0.010708492
0.097787037 -0.041639056 -0.41678292 -0.771887 -0.24883167 0.58504128 0.0093030138
0.097506434 -0.037178732 -0.41668147 -0.76769865 0.055332746 0.6384176 0.0044211624
0.097576901 -0.03241577 -0.41748047 -0.91815031 -0.0071148346 0.39616838 0.0012301278
0.097541809 -0.027944565 -0.41662598 -0.82162684 -0.23084638 0.52119029 0.010306967
0.096099854 -0.015975952 -0.41943359 0.34384626 0.31495407 0.88463193 0.021247178
0.097427368 -0.012741089 -0.41943359 -0.38080329 0.05131115 0.9232313 0.0098454095
0.096084595 -0.0059118271 -0.41796875 -0.92391098 -0.00079559459 0.38260666 0.00010084273
0.096252441 -0.0027814705 -0.41731772 -0.89561182 0.00075476908 0.44483581 0.0056247604
0.094177246 0.0028209686 -0.41943359 -0.72372049 -0.12138042 0.67933458 0.010010796
0.096063785 0.0026290633 -0.41703656 -0.74266732 -0.10786181 0.66091681 0.0078988643
0.094177246 0.006061554 -0.41943359 -0.6853646 -4.8647586e-08 0.72820008 0
0.095214844 0.0060501099 -0.41845703 -0.86368561 -0.079003461 0.4978008 0.010071564
0.094482422 0.013145447 -0.41796875 -0.92926174 7.9406561e-09 0.36942205 0
0.094482422 0.017021179 -0.41796875 -0.9307276 0.022090092 0.36504543 0.00080140622
0.095031738 0.020233154 -0.41748047 -0.96579152 0.14396667 0.21568599 0.0037662799
0.096400671 0.028370449 -0.41789898 -0.81580287 0.01859051 0.57803124 0.021183951
0.094177246 0.033935547 -0.41943359 -0.81357616 -0.27424806 0.51271999 0.012548586
0.096322194 0.031300135 -0.41761997 -0.69874859 -0.14478812 0.70056176 0.020751629
0.093332924 0.037317913 -0.41861978 -0.80234599 -0.31403902 0.50756317 0.018601229
0.091552734 0.043408204 -0.41708985 -0.91908371 -0.038257368 0.3922008 0.0017986142
0.091776527 0.047210693 -0.41650391 -0.91817224 0.0019082061 0.3961769 1.9628218e-05
0.09133634 0.052534625 -0.41783559 -0.81716466 -0.074072033 0.57162505 0.012457716
0.12919109 0.053263348 -0.41682944 0.0011832287 0.78722656 0.61666274 1.8464715e-06
0.13114421 0.052754719 -0.41617838 -1.6140183e-08 0.78802443 0.61564404 0
0.15124512 0.050140381 -0.41943359 0.23073843 0.67350572 0.70224631 0.00096012122
0.092679113 0.057428535 -0.41756925 -0.6565522 0.42128065 0.62566912 0.0049068835
0.097747803 0.058654785 -0.41552734 -0.071089663 0.6923148 0.71808529 0.0042253002
0.10095215 0.058654785 -0.41552734 -5.3606804e-08 0.78205955 0.62320369 0
0.11126709 0.056091309 -0.41552734 0.2033307 0.8078109 0.55326146 8.2293394e-05
0.12780762 0.055328369 -0.41943359 0.071045421 0.83041602 0.55259556 0.00098051608
0.093668617 0.060913086 -0.41910806 -0.53150111 0.53133219 0.65969139 5.5521512e-05
0.096142575 0.061071776 -0.41787109 -0.24689995 0.65649891 0.71277601 0.0090390835
0.10015869 0.060241699 -0.41748047 0.066369295 0.72541726 0.68510222 0.0018862918
0.20910645 -0.10266113 -0.41357422 -0.079790078 0.97218299 0.22021319 0.007353507
0.099975586 -0.086273193 -0.41137695 -0.78885734 0.25963804 0.55703878 0.026347917
0.10144043 -0.08581543 -0.41040039 -0.50695682 0.39098087 0.76819843 0.02984049
0.099072263 -0.082580566 -0.41416016 -0.73448324 0.072530389 0.67473972 0.050728809
0.10183512 -0.082364909 -0.41173503 -0.68663394 0.22873713 0.69008189 0.020434644
0.09942627 -0.079193115 -0.41455078 -0.69700593 0.3456814 0.6282413 0.028309338
0.10212708 -0.077529907 -0.41244507 -0.7360543 0.1593212 0.65790647 0.013423905
0.10261317 -0.072775707 -0.41294643 -0.76905644 0.13535327 0.62468517 0.012490577
0.10253906 -0.065246582 -0.41137695 -0.97365165 0.064460084 0.21874043 0.003567294
0.10192108 -0.061885834 -0.41223145 -0.80749768 -0.1492115 0.57068676 0.0084304055
0.098978676 -0.056437176 -0.41353354 -0.70879078 -0.00034128272 0.70541871 0.040209632
0.10143026 -0.058049519 -0.41125488 -0.72158659 -0.27413672 0.6357373 0.016418399
0.099578857 -0.053329468 -0.41247559 -0.83344442 0.23525912 0.50002354 0.022677831
0.10081482 -0.053443909 -0.41094971 -0.73357409 0.078845866 0.67502034 0.0037980066
0.1008606 -0.04694112 -0.41247559 -0.93726194 0.0015838321 0.34862232 7.9777303e-05
0.09942627 -0.040771484 -0.41455078 -0.68536472 -3.5133967e-09 0.72819996 0
0.10164388 -0.041941326 -0.41125488 -0.74727339 -0.0046903826 0.66450018 0.004894793
0.099263512 -0.037506104 -0.41389975 -0.80336785 -0.15221086 0.5757013 0.009573238
0.101163 -0.038108133 -0.41155452 -0.75836486 -0.07106635 0.64794469 0.0038128644
0.099182129 -0.032993317 -0.41357422 -0.68536466 1.78829e-08 0.72820002 0
0.10061646 -0.032842636 -0.41149902 -0.77631623 -0.045299228 0.62871385 0.0044255685
0.099141441 -0.027242025 -0.41337076 -0.76147729 -0.12170625 0.63666308 0.0085727284
0.1006958 -0.027868653 -0.41127929 -0.84062093 -0.053373933 0.5389877 0.0033773999
0.098262787 -0.022486687 -0.41256714 -0.71829593 -0.2940104 0.63056231 0.014148629
0.10101318 -0.024520874 -0.41040039 -0.70625496 -0.37460867 0.60072643 0.018787408
0.097517535 -0.018267544 -0.41268644 -0.7336973 0.0065839458 0.67944455 0.0010897053
0.098754883 -0.014404297 -0.41137695 -0.93632919 -1.6108022e-08 0.35112351 0
0.097045898 0.0034170151 -0.41247559 -0.86175543 -0.01818159 0.50699806 0.014137642
0.09724208 0.008046831 -0.41203961 -0.72211432 -0.07538829 0.68765366 0.020773863
0.097045898 0.012972355 -0.41241455 -0.72088987 0.039510768 0.69192249 0.0039245798
0.096181236 0.017044067 -0.41337076 -0.87935793 -0.08401145 0.46869141 0.006252693
0.095397949 0.02003479 -0.41357422 -0.92872828 -0.20834202 0.30668777 0.0030432979
0.095977783 0.033424377 -0.41333008 -0.58902621 -0.51766551 0.6205405 0.032275453
0.093849182 0.042373657 -0.41171265 -0.89928085 -0.13056132 0.4174298 0.009646941
0.09387207 0.047485352 -0.41183472 -0.87759882 0.072030589 0.4739534 0.0084966524
0.12384033 0.049072266 -0.41040039 0.00038121644 0.80887783 0.58797669 0.0002475529
0.12701416 0.049072266 -0.41040039 -1.2104783e-08 0.79400551 0.60791051 0
0.13366699 0.049194336 -0.41137695 0.06259723 0.82224572 0.56567979 0.00045122241
0.13781738 0.047790527 -0.41040039 0.12142356 0.79685509 0.59184313 0.00019250711
0.14196777 0.047912598 -0.41137695 0.13979518 0.77845597 0.61193436 0.00016320348
