ply
format ascii 1.0
comment PCL generated
element vertex 290
property float x
property float y
property float z
property float nx
property float ny
property float nz
property float curvature
element face 0
element camera 1
property float view_px
property float view_py
property float view_pz
property float x_axisx
property float x_axisy
property float x_axisz
property float y_axisx
property float y_axisy
property float y_axisz
property float z_axisx
property float z_axisy
property float z_axisz
property float focal
property float scalex
property float scaley
property float centerx
property float centery
property int viewportx
property int viewporty
property float k1
property float k2
end_header
-0.004577111 0.0093754996 -0.040543631 0.33648235 -0.90237826 0.26924565 0.085661672
0.0014976802 0.0092998687 -0.04056786 0.82354385 -0.26874724 0.49955022 0.019348735
-0.010598942 0.01315836 -0.040859416 0.028666627 -0.98221445 0.18556124 0.075251155
-0.0052135205 0.013709178 -0.041747667 0.71233714 -0.69932848 0.059291422 0.075988799
0.0043467847 0.014428316 -0.041678473 0.60860115 -0.79270786 -0.034913115 0.044394985
0.010692344 0.014490824 -0.040234558 -0.011977649 -0.99479884 -0.10115276 0.096640751
-0.012164719 0.0090816291 -0.033569463 0.7906937 -0.58294499 0.18702582 0.048438698
-0.0056445333 0.0076671168 -0.034519341 0.63810223 -0.4162969 0.6477055 0.023016449
0.0045577856 0.0081167798 -0.034841049 0.8499344 -0.19393833 0.4898974 0.0560962
0.010361337 0.0094013046 -0.032403197 0.87226367 0.48903587 0.00015117531 0.036620986
-0.020635942 0.016502183 -0.031398606 0.61616266 -0.73580623 -0.28094986 0.1102818
-0.015828865 0.01487892 -0.035269838 0.75297344 -0.6460951 0.12486887 0.047806367
-0.0074940226 0.016633818 -0.039327424 0.90416962 -0.38290465 -0.18937069 0.051621985
0.0080132056 0.015206176 -0.03851204 0.41831622 -0.90547562 0.071592845 0.067521565
0.014600821 0.0157285 -0.034941357 0.70328397 -0.45442721 0.5467062 0.063189209
0.020097874 0.018033072 -0.030237278 0.79025811 -0.60761404 0.079356395 0.21781404
-0.020582462 0.023271719 -0.031603787 0.47791302 -0.85203081 0.21364136 0.059044123
-0.015468413 0.024728758 -0.034425147 0.7078321 -0.68203318 -0.18386005 0.044704042
-0.0053004851 0.024763551 -0.036933802 0.60210264 -0.77706516 -0.18341796 0.022364758
0.0054540066 0.025146676 -0.036781244 0.78094202 -0.61883473 -0.084694169 0.02973742
0.015694927 0.024619175 -0.033271428 0.78901094 -0.47594443 0.38850835 0.040520202
0.02014729 0.023384329 -0.030438632 0.3991127 -0.2876125 0.87062514 0.047708571
-0.013897802 0.033603709 -0.031894282 0.95321226 -0.30229989 0.0010562987 0.072081216
-0.0049865716 0.035033092 -0.032820106 0.88488424 -0.45782873 0.085864633 0.026910838
0.0048324456 0.034989264 -0.03281809 0.55658418 -0.81538057 -0.15927477 0.017813919
0.012942697 0.032905269 -0.031782884 0.90877855 -0.2640664 0.32309505 0.041446228
-0.0033551853 0.041639894 -0.03050964 0.93334204 -0.35387197 -0.060392436 0.022229627
0.0023084595 0.041390806 -0.030334905 0.91149157 -0.32793763 0.24827409 0.015876247
-0.011693832 -0.0003418297 -0.021069253 0.57533592 -0.60260916 0.55303776 0.091061212
-0.005395554 -0.0021856446 -0.022602867 0.61569893 -0.72208095 0.31545827 0.1478003
0.0038928129 -0.0023317006 -0.023048215 0.65989763 -0.73291445 0.16544341 0.091532141
0.011731073 -0.00032913944 -0.020690149 0.41803217 -0.49114347 0.76421666 0.066722505
-0.021685779 0.0093397209 -0.021009639 0.64612216 -0.76020616 0.067917131 0.077092893
-0.013710555 0.0058480203 -0.023343587 0.29164326 -0.87317115 0.39053345 0.095298819
-0.0059241373 0.0033343572 -0.026199091 0.52155232 -0.72438729 0.45082843 0.075734012
0.0058837654 0.0039712857 -0.026510537 0.25272161 -0.83374333 0.4909215 0.074096218
0.013522325 0.005711413 -0.022785045 0.54861355 -0.63171107 0.54768997 0.089065053
0.021355418 0.0091521647 -0.021730481 0.32764024 -0.59291977 0.73559368 0.14693835
-0.021570995 0.0158739 -0.024016133 0.79362619 -0.41663387 0.4433662 0.13684903
-0.01726093 0.013476959 -0.025504405 0.41293681 -0.8355549 0.36239648 0.11821589
0.0098466706 0.010262679 -0.029340662 -0.60369474 -0.6393801 -0.47617832 0.053509802
0.017206367 0.015019127 -0.024658907 0.65180844 -0.62879294 0.42398727 0.12540925
0.021332622 0.013259324 -0.022711074 0.53775638 -0.63295692 0.55694139 0.16215281
-0.022313019 0.024862682 -0.024882009 0.19523677 -0.82890266 0.52421641 0.11351565
-0.01957896 0.021902245 -0.022192184 0.72941202 -0.68114167 0.063278936 0.057362217
0.01903067 0.023587724 -0.023955142 0.65174919 -0.43572301 0.62078047 0.088533491
0.020709509 0.025212916 -0.024604009 0.59096247 -0.61765707 0.51890558 0.084995978
-0.021534966 0.032547254 -0.023681723 0.1123254 -0.91945386 0.37681261 0.088302031
-0.017582804 0.036380365 -0.026429936 0.076872021 -0.97659266 0.20089173 0.071886413
-0.0092736706 0.038675424 -0.029808203 0.81679767 0.48403382 0.31393132 0.040557362
0.0081148567 0.039329045 -0.029434895 0.43761763 -0.89862823 -0.030952739 0.0098951804
0.016471192 0.035476316 -0.02530857 0.71320724 -0.53696293 0.45056209 0.04696206
0.020170251 0.031380739 -0.02402319 0.28626925 -0.50959599 0.81139499 0.071902759
-0.013991009 0.042726051 -0.024687996 0.98700333 -0.1552192 0.041612033 0.049021207
-0.0053546894 0.045616608 -0.025798682 0.83729118 -0.137109 0.52928692 0.01668546
0.0047597345 0.04537604 -0.025233822 0.76693016 -0.2781367 0.5783236 0.013083637
0.012676969 0.042550705 -0.023033578 0.84455729 -0.3926425 0.36408085 0.060492456
-0.0030201087 0.050285496 -0.020375647 0.69998085 0.17154574 0.69325233 0.020210573
0.0015594463 0.050097272 -0.020784471 -0.16388589 0.33377719 0.92829639 0.01956087
-0.011808113 -0.011185317 -0.010667928 0.23384973 -0.93823409 0.25501186 0.075696491
-0.0056049926 -0.012096778 -0.011092215 0.83088923 -0.52110696 0.19511697 0.11078201
0.0038554925 -0.011733128 -0.011034925 0.68191135 -0.59864002 0.42027023 0.061229076
-0.013139659 -0.0051058214 -0.012739277 0.5467571 -0.8334204 0.080418661 0.067940004
-0.0057035591 -0.0042461175 -0.015016993 0.57977629 -0.79141659 0.19369853 0.074325934
0.0054858341 -0.0044220109 -0.014720555 0.65394324 -0.56276232 0.50562525 0.10404382
0.011630326 -0.0036681606 -0.013570946 0.41267228 -0.76637655 0.49230933 0.10089755
-0.021632772 0.0085884817 -0.018081788 0.32269284 -0.93204242 -0.16482201 0.18356599
-0.015130989 0.0049165678 -0.01485925 0.39461738 -0.6370132 0.6621868 0.095640577
-0.0090641268 0.00089361577 -0.014140934 0.66067117 -0.69087869 0.29359877 0.098283336
0.0090623926 0.00095626537 -0.01371538 0.55249351 -0.50289965 0.66471261 0.14586651
0.01486341 0.0052928459 -0.015283559 0.56700575 -0.60462081 0.55940872 0.12597677
0.020704271 0.0081356848 -0.01842024 0.18761508 -0.92107815 0.34119716 0.12310048
-0.021488328 0.012654894 -0.019281572 0.89744645 -0.43780795 -0.053982984 0.12012915
-0.017501773 0.015330531 -0.014854279 0.13308792 -0.8214885 0.55447656 0.071495593
0.016897751 0.014951498 -0.014830986 0.55495763 -0.73836094 0.38320386 0.10015054
0.02086762 0.010851289 -0.019736243 0.59338486 -0.76962405 0.2357399 0.11476389
-0.021088669 0.026364617 -0.018705705 0.56195611 -0.38069814 0.73435301 0.10853332
-0.016663939 0.025184005 -0.014681393 0.44245753 -0.51193088 0.73631388 0.093284376
0.009860334 0.029766822 -0.010457203 0.72052425 -0.13101362 0.68094075 0.25122201
0.015715908 0.0259577 -0.015140497 0.70644039 -0.2820324 0.64915305 0.10143684
0.020119401 0.027680522 -0.019224642 0.35848904 -0.68568975 0.63349432 0.03943501
-0.020715969 0.033505008 -0.017884543 0.51576829 -0.48399404 0.70691788 0.082839213
-0.016589638 0.035344664 -0.013700493 0.55430782 -0.18434568 0.81164002 0.10737894
-0.0089604808 0.039481841 -0.010367118 0.85879129 -0.1589839 0.48703352 0.024127539
0.0092657488 0.035568494 -0.010951384 0.34239614 -0.38447106 0.85729045 0.091856129
0.01499965 0.034626231 -0.014526499 0.54958338 -0.3200717 0.77169436 0.085177168
0.020271605 0.031873126 -0.019697964 0.7124151 -0.63186252 0.3053104 0.19022913
-0.013682328 0.043439027 -0.015265343 0.32478729 -0.47914726 0.8154332 0.061208896
-0.0050337026 0.04615796 -0.01279945 0.60727865 -0.4594591 0.64815897 0.078542717
0.0051420829 0.045008462 -0.01290583 0.63236439 -0.4129332 0.65543985 0.055599663
0.011951203 0.042821217 -0.016172616 0.73927975 -0.59768075 0.31023085 0.06631881
-0.003639665 0.050233696 -0.017799394 0.045613442 -0.19729254 0.97928292 0.019548409
0.0014217295 0.050189465 -0.017596882 0.22696519 -0.044852309 0.97286958 0.029028339
-0.01089371 -0.030097065 -0.00042722502 0.080859549 -0.46983075 0.87904543 0.018385045
-0.0046762251 -0.030541111 -0.00048771803 0.10360048 -0.71499079 0.69141537 0.011988147
0.0039724768 -0.030393722 -0.00023025874 0.21093667 -0.37093347 0.90438604 0.082509741
-0.013217207 -0.023996131 -0.0027324478 0.67602193 -0.57825994 0.45673832 0.10576153
-0.0050009866 -0.02445234 -0.0035367918 0.71812785 -0.41513309 0.55853111 0.10664533
0.0049932832 -0.024182973 -0.0028895149 0.58621854 -0.41698405 0.69460225 0.097587459
0.011980627 -0.022609858 -0.0013406698 0.25193542 -0.61170995 0.74989301 0.10145929
-0.022897763 -0.011420747 -0.0029313457 0.42495343 -0.65886796 0.62073141 0.12909569
-0.01433477 -0.015115284 -0.0057053622 0.42280301 -0.69733113 0.57876325 0.076488115
-0.004875835 -0.01693614 -0.0075044869 0.47227168 -0.53435665 0.70101523 0.10962051
0.0055019725 -0.016506609 -0.0070800176 0.706505 -0.41804793 0.57103997 0.097483404
0.013146408 -0.014849863 -0.0041668979 0.089532502 -0.75296855 0.65193743 0.12095476
0.020434879 -0.010465302 -0.00036749584 -0.48108327 -0.86679149 0.13126887 0.029371597
-0.02223642 -0.0065826485 -0.0037593793 -0.003799554 -0.77867746 0.62741292 0.10145563
-0.01710956 -0.0043106792 -0.0067059696 0.34757361 -0.69710666 0.62708449 0.063216232
-0.009721769 -0.00043461716 -0.0095263561 0.66399407 0.62388217 -0.41216859 0.05960121
0.008764727 -0.00063245208 -0.0093952157 0.40164393 -0.89403838 0.19843769 0.10071316
0.015210161 -0.0053789727 -0.0055835973 0.4964464 -0.63989401 0.5865804 0.10068356
0.020649357 -0.0074414187 -0.0013095853 0.30893892 -0.9460845 0.0973695 0.099831715
-0.013602401 0.0050779535 -0.0050168214 0.46093008 -0.27525488 0.84366947 0.030869843
-0.008758069 0.0038270201 -0.0034365086 0.23508286 -0.86730647 0.43876582 0.084036864
0.0089742513 0.0029030987 -0.0045675347 0.35661894 -0.77906793 0.51563168 0.085369624
0.013194693 0.0057605105 -0.0050823512 0.4074176 -0.65610915 0.63524151 0.086760603
-0.014990256 0.015635055 -0.0049565812 0.082639195 -0.74241328 0.66482574 0.087840907
0.015264094 0.014696058 -0.005192297 0.29862624 -0.63514131 0.71233267 0.11751705
-0.012362465 0.023391616 -0.0070803403 0.61683893 -0.20868622 0.75892025 0.053464524
-0.0055909525 0.025108205 -0.003366912 0.44589943 -0.50116855 0.74162245 0.058399592
0.0057738884 0.026380161 -0.0047423821 0.46438992 -0.24254386 0.85177141 0.11855658
0.011830393 0.023097714 -0.0067152735 0.34063312 -0.41745794 0.84243584 0.08331605
-0.013520309 0.035489123 -0.0063322289 0.42247167 -0.026943341 0.90597558 0.12773827
-0.0056118839 0.035418682 -0.0059033418 0.70368212 -0.092207134 0.7045064 0.055814996
0.0055130776 0.034692504 -0.0064034117 0.59058589 -0.19177252 0.78385681 0.080622971
0.012396827 0.035652038 -0.0069478936 0.88930917 -0.30901849 0.3371006 0.13811766
-0.010345087 0.040344808 -0.0020984695 0.056248743 0.098500624 0.99354607 0.21649355
-0.0044193203 0.041247439 -0.0036965574 0.44161114 0.096016154 0.89205408 0.081889302
0.0039662658 0.041048054 -0.0043881279 0.42223513 -0.14127403 0.89541006 0.062475551
0.010009848 0.040186182 -0.0012618643 0.36401603 -0.14121957 0.92062443 0.03790091
-0.010769589 -0.050042633 0.0098201679 0.59702569 -0.77577871 0.20427379 0.060814191
-0.009507169 -0.050048042 0.0099616349 0.64436042 -0.5908066 0.48553807 0.087661013
-0.01325561 -0.043474846 0.0086559495 0.61643654 -0.37930694 0.6900233 0.087297484
-0.0075498442 -0.043230638 0.0085676508 0.64824039 -0.51620579 0.55974627 0.078878589
0.0072564916 -0.041695081 0.0094124749 0.91011089 -0.073980115 0.40770704 0.10521751
0.01091102 -0.041273147 0.0095641827 0.66101074 -0.63145268 0.40537924 0.07705538
-0.014084818 -0.034859221 0.006135195 0.53114551 -0.60630584 0.59184265 0.10031676
-0.005688156 -0.035676483 0.0054435562 0.69393378 -0.30227599 0.65351748 0.079462454
0.0054877796 -0.034886453 0.0064358218 0.54466635 -0.30496812 0.78123808 0.088841803
0.012060127 -0.034378882 0.008068216 0.6932109 -0.061218038 0.71813029 0.10461679
-0.017263671 -0.025496632 0.004775235 0.39786845 -0.66286504 0.63427973 0.10114735
-0.0060093454 -0.029790299 0.00025433995 0.43477589 -0.62858087 0.64486903 0.0096340356
0.0060514491 -0.029044291 0.00085373875 0.63406044 -0.22225414 0.74065542 0.078845374
0.014333383 -0.02485536 0.0041799285 0.20954008 -0.78769016 0.57934201 0.051320523
-0.032398261 -0.013337011 0.0080395984 0.19252099 -0.39299831 0.89915967 0.10348225
-0.024821285 -0.013680418 0.0044356664 0.53480667 -0.32264301 0.78095025 0.087007083
-0.017938772 -0.016023964 0.0045935339 0.49057457 -0.66392332 0.56439567 0.082328908
0.016072199 -0.01616803 0.0045993333 0.76998532 -0.34423628 0.53723741 0.048046552
0.023963543 -0.012528963 0.005672588 0.46941873 -0.55643541 0.68558419 0.097724862
-0.031701483 -0.0079353973 0.0082740737 0.11864958 -0.64962804 0.75093657 0.1104579
-0.025569642 -0.006164805 0.0049021305 0.30656832 -0.53827709 0.78503102 0.075576082
-0.016332803 -0.0043588416 0.0066221328 0.42672968 -0.70346826 0.56836104 0.10231199
0.015653484 -0.0030693314 0.0064553716 0.38433126 -0.66634309 0.63896513 0.076898009
0.023046162 -0.0069177216 0.0048162923 0.22722487 -0.38134542 0.89607173 0.083431937
-0.012127372 0.0039127753 0.0036460799 0.55363953 -0.51669359 0.65307814 0.057233639
-0.0050151777 0.0055264905 0.0043736971 0.43613106 -0.6053409 0.66584682 0.053027987
0.0050404286 0.0056808321 0.0049977275 0.54639226 -0.68837297 0.47707239 0.065831311
0.011601743 0.0029990308 0.0037532111 0.67332768 -0.6759603 0.29951203 0.054460321
-0.011827667 0.014778256 0.0019073773 0.34369093 -0.25657776 0.90335172 0.13059692
-0.0059317104 0.015114217 0.0052904096 0.66577584 -0.387997 0.63733894 0.10419346
0.005146726 0.014726062 0.0052420874 0.8711282 -0.42963576 0.23780003 0.081413276
0.011859467 0.015590767 0.0016143252 0.32321161 -0.63353485 0.70297074 0.11657887
-0.011148569 0.020632926 0.00090145227 0.82427257 0.031988859 0.56528884 0.075615481
-0.0049231816 0.024429278 0.0058795088 0.64066476 -0.28451213 0.71316308 0.10297149
0.0051160799 0.024714015 0.0055642747 0.61364734 -0.38622785 0.68866897 0.047883339
0.01083882 0.020655524 0.0011991789 0.66307843 -0.66307628 0.34735703 0.072098352
-0.011047616 0.039511435 0.00015067495 -0.42752782 0.40258518 0.80941039 0.10459724
-0.0050066495 0.034111887 0.0041931402 -0.34167647 0.18413603 0.92160237 0.072208308
0.0017979849 0.030458724 0.007522115 0.86283016 -0.12375802 0.49011034 0.044205587
-0.0037331593 0.041490942 0.00074016064 0.33176407 -0.13803019 0.93320966 0.067778699
0.0014519672 0.04149615 0.00073431694 0.78728884 -0.46469161 -0.40526274 0.038941693
-0.013251632 -0.061398763 0.018218853 0.15200341 -0.56311142 0.81228107 0.0719845
-0.0076381727 -0.061408494 0.01836811 0.78923953 -0.13299657 0.59951055 0.03208166
0.0072247265 -0.06084837 0.019411691 0.5360356 -0.50309139 0.67791212 0.069107965
0.010868302 -0.06042641 0.019510511 -0.050840288 0.025705442 0.99837589 0.039400835
-0.015153746 -0.054714877 0.015877187 0.62637919 -0.32348326 0.70923036 0.12100013
-0.0065222234 -0.054586601 0.015520253 0.7279942 -0.10021942 0.6782186 0.070507452
0.0053675547 -0.054363616 0.017001104 0.84932917 -0.067411691 0.52354151 0.11786582
0.012863462 -0.053721007 0.017515503 0.64508206 -0.14756462 0.74972916 0.088350751
-0.017000237 -0.044959195 0.014075694 0.53473443 -0.39588636 0.74654746 0.10981092
-0.0042835688 -0.045209255 0.01429962 0.72848374 -0.197668 0.65592581 0.08625412
0.0041538798 -0.045320529 0.013193544 0.6605913 -0.15379182 0.73482466 0.10134314
0.013865402 -0.04478617 0.014895092 0.49753761 -0.30764243 0.81105638 0.094152361
-0.018121421 -0.035791572 0.014916666 0.51121503 -0.60209972 0.61329848 0.093798883
-0.002192359 -0.034912337 0.016110834 0.56561416 -0.23938735 0.78916055 0.12880342
0.0013545635 -0.036016777 0.013101379 0.38811129 -0.34326446 0.85530066 0.076691873
0.014896646 -0.036142495 0.014720232 0.20076284 -0.67408866 0.71084368 0.10284731
-0.034634113 -0.020865843 0.017830303 0.54291731 -0.22739732 0.80841273 0.039149646
-0.017507261 -0.024571674 0.015676744 0.40907925 -0.56169796 0.71913111 0.091541819
-0.0031617491 -0.028753811 0.019096434 0.10430904 -0.99448973 -0.010477423 0.094141237
0.00026496834 -0.02893742 0.019285642 0.43428385 -0.89550686 -0.09728796 0.077102661
0.014890648 -0.024973338 0.016026493 0.1008887 -0.78456581 0.61178267 0.073256977
0.027808875 -0.020086491 0.018529532 0.59880018 0.27900243 0.7507304 0.015346696
0.032307796 -0.020446481 0.019874863 0.70747072 -0.0056507168 0.70672005 0.035854463
-0.040811814 -0.014860539 0.018624989 0.063399039 -0.98196638 0.17810859 0.073577538
-0.036565576 -0.014832334 0.01426145 0.21279052 -0.50784826 0.83475173 0.088319048
-0.026500538 -0.015265845 0.015014407 0.32281643 -0.51201624 0.79600811 0.068480849
-0.016705096 -0.014313306 0.016037732 0.58512044 -0.61417258 0.52955288 0.12229716
0.009613201 -0.011503085 0.019727049 0.77222043 -0.55368024 -0.31163093 0.18235499
0.015018002 -0.014215451 0.015426815 0.33715838 -0.41104504 0.84697473 0.12515114
0.026002305 -0.015496965 0.014408662 0.59024882 -0.40050077 0.7008605 0.086863615
0.032045938 -0.01481149 0.016768591 0.21133111 -0.35520646 0.91058636 0.1123302
-0.040487085 -0.0085448166 0.018913148 -0.090312071 -0.93370962 0.34645337 0.095006257
-0.035302311 -0.0066332775 0.01501787 0.29521829 -0.47730792 0.82766145 0.06242751
-0.026141627 -0.0063956738 0.014833279 0.49721697 -0.29425067 0.81620574 0.047970623
-0.014568388 -0.0061889798 0.014934114 0.50457764 -0.68728179 0.52253735 0.13114816
-0.005134834 -0.0028471313 0.01762923 0.51161945 -0.63140982 0.58272398 0.034988914
0.0058191223 -0.0028843454 0.017714566 0.53827959 -0.82269114 0.1828506 0.066905357
0.014247277 -0.0063301129 0.014329321 0.26073015 -0.70471132 0.65984988 0.10711864
0.024908073 -0.0067519182 0.015077143 0.60716623 -0.53753573 0.58515334 0.076796234
0.031108879 -0.0083735697 0.017039964 0.45378536 -0.61327219 0.64651072 0.06596677
-0.011729126 0.00091571145 0.011769464 0.99826819 -0.025473598 0.053025927 0.067690447
-0.0053639226 0.00090990757 0.012720257 0.089530893 -0.36969987 0.92482764 0.013589242
0.0061064069 0.0009125885 0.014432035 0.61254752 -0.58894122 0.5271942 0.048663236
0.010570437 0.00062420248 0.013244393 0.7597844 -0.64943868 -0.030936237 0.031714756
-0.0031097753 0.025234615 0.011576247 0.65969616 -0.48495257 0.57412726 0.08252757
0.0032240553 0.02508894 0.011545773 0.71156323 -0.5461424 0.44204766 0.089510836
-0.014287878 -0.06192008 0.024074968 0.34213015 0.15598759 0.9266147 0.028344855
-0.0067025702 -0.061529521 0.024461623 0.52514702 0.24595678 0.81469381 0.04898553
0.0053925086 -0.061482366 0.024195153 0.58840203 -0.28570262 0.75641066 0.039113902
0.012939347 -0.06105243 0.024658468 -0.072612554 -0.42213038 0.90362233 0.052905727
-0.021280494 -0.054060962 0.026223492 0.47879955 -0.38642421 0.78830671 0.11443822
-0.018562777 -0.055425912 0.02391714 0.53935623 -0.20067158 0.81781769 0.086722478
-0.0036375602 -0.054684903 0.025458863 0.67784327 -0.36619306 0.63751954 0.10178654
0.001601963 -0.055186875 0.024240343 0.77263963 -0.45363733 0.4441185 0.089576095
0.016279822 -0.055332251 0.024913715 0.32621041 -0.58016104 0.74632424 0.08505284
-0.020714918 -0.047954775 0.027165821 0.77143824 -0.21851172 0.59760827 0.077225633
-0.017340982 -0.04426422 0.024992112 0.68316531 -0.58479273 0.43738148 0.069519259
-0.003888316 -0.045241222 0.02456052 0.65299958 -0.33906996 0.67721713 0.10569232
0.0024954907 -0.04424762 0.026588034 0.4931069 -0.51800382 0.6989404 0.10796975
0.015029893 -0.044875715 0.025134493 0.59287727 -0.24311806 0.7677176 0.052509699
-0.013988515 -0.0350045 0.0234216 0.72003216 -0.61186779 0.32737046 0.07791315
-0.0068601193 -0.03494183 0.0234819 0.73712116 -0.56221354 0.37492451 0.044635091
0.0047487612 -0.035299752 0.024523648 0.85838616 -0.43205103 0.2765955 0.084113032
0.013187651 -0.035670914 0.023303624 0.88511318 -0.42611834 0.18707679 0.091378234
-0.035348684 -0.021022895 0.022758877 0.85463083 -0.40325046 0.32710123 0.055283025
-0.012969677 -0.025803013 0.021607719 0.69919902 -0.59448856 0.39711979 0.094397254
-0.0061960374 -0.02472613 0.022604223 0.72336602 -0.6897189 -0.032083187 0.077139467
0.0049392343 -0.025575776 0.023321994 0.71378469 -0.66215497 0.22817141 0.08864101
0.012231496 -0.025494834 0.021745065 0.68527561 -0.72517937 0.067173071 0.11819427
0.028003972 -0.021059632 0.02576994 0.45839474 -0.24737963 0.85362607 0.078501888
0.033323769 -0.021152534 0.025018035 0.28403628 -0.5765844 0.76607698 0.065196685
-0.04113635 -0.013520672 0.023061486 0.24802083 -0.49130517 0.83492804 0.10793846
-0.035010602 -0.015228382 0.025685778 0.63667101 -0.5823527 0.5054853 0.08279644
-0.029077776 -0.012224246 0.021646833 0.67191058 -0.73811466 0.061015397 0.072778367
-0.01267885 -0.014781687 0.021328423 0.65888983 -0.66086829 0.35932916 0.12523083
-0.0049039531 -0.015243637 0.024091721 0.85236996 -0.42114609 0.31000242 0.073560588
0.0056031276 -0.014894535 0.023276193 0.88336724 -0.45306712 -0.11996879 0.067058362
0.011359576 -0.016148331 0.021039646 0.85696608 -0.47628039 0.19689135 0.1323445
0.024549402 -0.015162801 0.02533666 0.19880003 -0.76534826 0.61214429 0.10957809
0.035038788 -0.015390766 0.024857027 0.1337481 -0.64297026 0.75412244 0.063027278
-0.040688477 -0.0069675697 0.023468884 0.17262726 -0.93699241 0.30371857 0.07955455
-0.035542015 -0.0061050802 0.02626786 0.40833938 -0.70365453 0.58148897 0.086665429
-0.027861163 -0.0051929303 0.025303595 0.31458727 -0.54517889 0.77705526 0.10905664
-0.011249953 -0.0086099384 0.020911174 0.54952705 -0.6615293 0.51029301 0.15680486
-0.0045275018 -0.0075169732 0.021908246 0.88100541 -0.42280644 0.21228336 0.094901599
0.004447584 -0.0078905728 0.021575829 0.83282387 -0.55274326 0.029652733 0.079910286
0.010346441 -0.0093611442 0.020624844 -0.25262454 -0.87763453 0.40735552 0.20298156
0.023708411 -0.006107437 0.025120661 0.32301271 -0.74780691 0.58004099 0.10663954
0.033291843 -0.0069876164 0.024908785 0.3516328 -0.80686677 0.47467938 0.10389085
-0.022563163 -0.053165168 0.034046825 0.60923076 -0.51673979 0.60151285 0.10717881
-0.01517396 -0.055241831 0.035451453 0.24844559 0.36726969 0.89631897 0.013850193
-0.0062615364 -0.053274661 0.033751953 0.75725472 -0.41163737 0.50706995 0.10066474
0.0055938866 -0.054290477 0.035495315 0.6422447 -0.097006053 0.76033658 0.037432451
0.016462907 -0.053997919 0.034514122 0.56257236 -0.32232884 0.76132536 0.065435879
0.020050351 -0.05076389 0.035255563 -0.018483447 -0.60324216 0.79734385 0.079797313
-0.02198082 -0.046171993 0.035343394 0.82259864 -0.12453187 0.55481833 0.097839348
-0.015413224 -0.042672485 0.036011629 0.62251812 -0.38301334 0.68247485 0.052123453
-0.0072861183 -0.047115181 0.035566498 0.71929711 -0.47957778 0.50261009 0.097589932
0.0034184295 -0.044871062 0.035443373 0.67384595 -0.37678081 0.63558459 0.097228125
0.017068638 -0.044974275 0.034937542 0.67239195 -0.4959079 0.54951292 0.064191297
0.020095596 -0.048556015 0.034924276 0.26554742 0.2378702 0.93429238 0.11375908
0.0088431248 -0.03989619 0.036952581 0.35012043 -0.03777561 0.93594271 0.034513865
0.011002824 -0.039831102 0.038176909 0.57106054 -0.12941112 0.81064337 0.034201924
0.030952185 -0.021178484 0.030308941 0.4305039 -0.89863199 -0.084420554 0.086722568
0.02688496 -0.014122668 0.032598022 0.34856567 -0.91851759 0.18662086 0.12623462
0.032645155 -0.014299847 0.032251034 0.92699581 -0.32487658 -0.18744044 0.069778815
-0.032300416 -0.0070442581 0.030328117 0.55586869 -0.75627971 0.3450377 0.12006322
-0.029468238 -0.0068300604 0.030449906 0.1848896 -0.69908953 0.69071674 0.11591707
0.024614079 -0.0070264763 0.03280424 0.51046455 -0.79231805 0.33415291 0.11286344
0.032089043 -0.0068834145 0.032299411 0.66450518 -0.70249224 0.25482848 0.079902321
-0.014895409 -0.051729385 0.04109478 0.7542423 -0.53094119 0.3862901 0.060541421
-0.0095620044 -0.051890306 0.040431336 0.83010602 0.55639654 0.036699377 0.070909381
0.0061167013 -0.051231392 0.041212495 0.93885761 -0.34402683 0.01384981 0.051976468
0.013680625 -0.051313583 0.04139547 0.64016569 0.21995312 0.73607647 0.025591081
-0.021471106 -0.049110595 0.04027902 -0.45015821 0.6128782 0.64941347 0.034709603
-0.015323767 -0.046668403 0.041296825 0.74873316 -0.56196564 0.35155833 0.055147868
-0.0088537382 -0.048806842 0.040456008 -0.15313381 -0.98523712 -0.076536544 0.055605795
0.006187465 -0.045421798 0.042054806 0.83323914 -0.33504015 0.43984181 0.087566711
0.014202413 -0.04562873 0.042308517 0.39028391 -0.814484 0.42929515 0.059444956
0 0 0 1 0 0 0 1 0 0 0 1 0 0 0 0 0 290 1 0 0
