ply
format ascii 1.0
comment PCL generated
element vertex 1370
property float x
property float y
property float z
element face 0
element camera 0
property float view_px
property float view_py
property float view_pz
property float x_axisx
property float x_axisy
property float x_axisz
property float y_axisx
property float y_axisy
property float y_axisz
property float z_axisx
property float z_axisy
property float z_axisz
property float focal
property float scalex
property float scaley
property float centerx
property float centery
property int viewportx
property int viewporty
property float k1
property float k2
end_header
0.2286377 0.16162109 -0.60302734
0.23046875 0.16162109 -0.60302734
0.23278809 0.16186523 -0.60400391
0.23461914 0.16186523 -0.60400391
0.23681641 0.16210938 -0.60498047
0.23913574 0.16235352 -0.60595703
0.2421875 0.16320801 -0.609375
0.24487305 0.16369629 -0.61132812
0.24316406 0.16125488 -0.60205078
0.24658203 0.16235352 -0.60595703
0.2512207 0.16430664 -0.61328125
0.25317383 0.16430664 -0.61328125
0.25512695 0.16430664 -0.61328125
0.25732422 0.16455078 -0.61425781
0.26025391 0.16503906 -0.61621094
0.26416016 0.16638184 -0.62109375
0.26660156 0.16674805 -0.62207031
0.26855469 0.16674805 -0.62207031
0.27050781 0.16674805 -0.62207031
0.27856445 0.16699219 -0.62304688
0.17053223 0.15600586 -0.58886719
0.17260742 0.15625 -0.58984375
0.17443848 0.15625 -0.58984375
0.17651367 0.15649414 -0.59130859
0.17834473 0.15649414 -0.59130859
0.18054199 0.15673828 -0.59228516
0.18261719 0.15710449 -0.59326172
0.18481445 0.15734863 -0.59423828
0.18688965 0.15759277 -0.59521484
0.1887207 0.15759277 -0.59521484
0.19128418 0.15808105 -0.59716797
0.19348145 0.1583252 -0.59814453
0.1953125 0.1583252 -0.59814453
0.19677734 0.15808105 -0.59716797
0.19897461 0.1583252 -0.59814453
0.20080566 0.1583252 -0.59814453
0.20263672 0.1583252 -0.59814453
0.20458984 0.1583252 -0.59814453
0.20678711 0.15869141 -0.59912109
0.20861816 0.15869141 -0.59912109
0.21008301 0.1583252 -0.59814453
0.21191406 0.1583252 -0.59814453
0.21447754 0.15893555 -0.60009766
0.21630859 0.15893555 -0.60009766
0.21862793 0.15917969 -0.60107422
0.22045898 0.15917969 -0.60107422
0.22229004 0.15917969 -0.60107422
0.22412109 0.15917969 -0.60107422
0.22595215 0.15917969 -0.60107422
0.22827148 0.15942383 -0.60205078
0.23010254 0.15942383 -0.60205078
0.23193359 0.15942383 -0.60205078
0.23388672 0.15942383 -0.60205078
0.23608398 0.15966797 -0.60302734
0.23840332 0.16003418 -0.60400391
0.24145508 0.1607666 -0.60693359
0.24328613 0.1607666 -0.60693359
0.24475098 0.16052246 -0.60595703
0.24780273 0.16125488 -0.609375
0.25 0.16162109 -0.61035156
0.25317383 0.16235352 -0.61328125
0.25561523 0.16259766 -0.61425781
0.25830078 0.16320801 -0.61621094
0.26025391 0.16320801 -0.61621094
0.2800293 0.16479492 -0.62207031
0.16833496 0.15393066 -0.58789062
0.17053223 0.1541748 -0.58886719
0.17260742 0.15441895 -0.58984375
0.17443848 0.15441895 -0.58984375
0.17651367 0.15466309 -0.59130859
0.17834473 0.15466309 -0.59130859
0.18054199 0.15490723 -0.59228516
0.18261719 0.15527344 -0.59326172
0.18481445 0.15551758 -0.59423828
0.18688965 0.15576172 -0.59521484
0.1887207 0.15576172 -0.59521484
0.19128418 0.15625 -0.59716797
0.19348145 0.15649414 -0.59814453
0.1953125 0.15649414 -0.59814453
0.19750977 0.15673828 -0.59912109
0.19897461 0.15649414 -0.59814453
0.20080566 0.15649414 -0.59814453
0.20263672 0.15649414 -0.59814453
0.20458984 0.15649414 -0.59814453
0.2064209 0.15649414 -0.59814453
0.20825195 0.15649414 -0.59814453
0.2097168 0.15625 -0.59716797
0.21191406 0.15649414 -0.59814453
0.21411133 0.15673828 -0.59912109
0.21594238 0.15673828 -0.59912109
0.21826172 0.15710449 -0.60009766
0.22009277 0.15710449 -0.60009766
0.22192383 0.15710449 -0.60009766
0.22375488 0.15710449 -0.60009766
0.22595215 0.15734863 -0.60107422
0.22790527 0.15734863 -0.60107422
0.23010254 0.15759277 -0.60205078
0.23156738 0.15734863 -0.60107422
0.23388672 0.15759277 -0.60205078
0.23608398 0.15783691 -0.60302734
0.23840332 0.15808105 -0.60400391
0.2409668 0.15869141 -0.60595703
0.24291992 0.15869141 -0.60595703
0.24511719 0.15893555 -0.60693359
0.24707031 0.15893555 -0.60693359
0.24938965 0.15917969 -0.60791016
0.25195312 0.15966797 -0.61035156
0.25439453 0.15991211 -0.61132812
0.25830078 0.16125488 -0.61621094
0.25976562 0.16101074 -0.61523438
0.27954102 0.16259766 -0.62109375
0.18237305 0.15307617 -0.59228516
0.18444824 0.15344238 -0.59326172
0.18688965 0.15393066 -0.59521484
0.18908691 0.1541748 -0.59619141
0.19128418 0.15441895 -0.59716797
0.19348145 0.15466309 -0.59814453
0.1953125 0.15466309 -0.59814453
0.19714355 0.15466309 -0.59814453
0.1986084 0.15441895 -0.59716797
0.20043945 0.15441895 -0.59716797
0.20239258 0.15441895 -0.59716797
0.20422363 0.15441895 -0.59716797
0.20605469 0.15441895 -0.59716797
0.20825195 0.15466309 -0.59814453
0.21008301 0.15466309 -0.59814453
0.21154785 0.15441895 -0.59716797
0.21374512 0.15466309 -0.59814453
0.21594238 0.15490723 -0.59912109
0.21789551 0.15490723 -0.59912109
0.21972656 0.15490723 -0.59912109
0.22192383 0.15515137 -0.60009766
0.22375488 0.15515137 -0.60009766
0.22558594 0.15515137 -0.60009766
0.22790527 0.15551758 -0.60107422
0.22973633 0.15551758 -0.60107422
0.23156738 0.15551758 -0.60107422
0.23388672 0.15576172 -0.60205078
0.23608398 0.15600586 -0.60302734
0.23840332 0.15625 -0.60400391
0.24060059 0.15649414 -0.60498047
0.24291992 0.15673828 -0.60595703
0.24511719 0.15698242 -0.60693359
0.24780273 0.15759277 -0.609375
0.25 0.15783691 -0.61035156
0.25244141 0.15808105 -0.61132812
0.25585938 0.15905762 -0.61523438
0.2578125 0.15905762 -0.61523438
0.25976562 0.15905762 -0.61523438
0.27905273 0.16137695 -0.62402344
0.27954102 0.16064453 -0.62109375
0.18664551 0.15185547 -0.59423828
0.1887207 0.15209961 -0.59521484
0.19091797 0.15234375 -0.59619141
0.19311523 0.15258789 -0.59716797
0.19494629 0.15258789 -0.59716797
0.19677734 0.15258789 -0.59716797
0.1986084 0.15258789 -0.59716797
0.20043945 0.15258789 -0.59716797
0.20239258 0.15258789 -0.59716797
0.20422363 0.15258789 -0.59716797
0.20605469 0.15258789 -0.59716797
0.20788574 0.15258789 -0.59716797
0.20935059 0.15234375 -0.59619141
0.21154785 0.15258789 -0.59716797
0.21374512 0.15283203 -0.59814453
0.21557617 0.15283203 -0.59814453
0.21789551 0.15307617 -0.59912109
0.21972656 0.15307617 -0.59912109
0.22155762 0.15307617 -0.59912109
0.23608398 0.1541748 -0.60302734
0.23840332 0.15441895 -0.60400391
0.24060059 0.15466309 -0.60498047
0.24328613 0.15515137 -0.60693359
0.24511719 0.15515137 -0.60693359
0.24780273 0.15563965 -0.609375
0.25 0.15588379 -0.61035156
0.25244141 0.15612793 -0.61132812
0.25585938 0.15722656 -0.61523438
0.2578125 0.15722656 -0.61523438
0.26025391 0.1574707 -0.61621094
0.27954102 0.15979004 -0.625
0.27905273 0.15844727 -0.62011719
0.18481445 0.15002441 -0.59423828
0.18664551 0.15002441 -0.59423828
0.1887207 0.15026855 -0.59521484
0.19189453 0.15124512 -0.59912109
0.19372559 0.15124512 -0.59912109
0.1953125 0.15100098 -0.59814453
0.19714355 0.15100098 -0.59814453
0.19836426 0.1505127 -0.59619141
0.20019531 0.1505127 -0.59619141
0.20239258 0.15075684 -0.59716797
0.20385742 0.1505127 -0.59619141
0.20568848 0.1505127 -0.59619141
0.20788574 0.15075684 -0.59716797
0.2097168 0.15075684 -0.59716797
0.21191406 0.15100098 -0.59814453
0.21374512 0.15100098 -0.59814453
0.21557617 0.15100098 -0.59814453
0.23913574 0.1529541 -0.60595703
0.24145508 0.15332031 -0.60693359
0.24365234 0.15356445 -0.60791016
0.24560547 0.15356445 -0.60791016
0.24829102 0.15405273 -0.61035156
0.25048828 0.15429688 -0.61132812
0.25292969 0.15454102 -0.61230469
0.25585938 0.15527344 -0.61523438
0.2578125 0.15527344 -0.61523438
0.26025391 0.15551758 -0.61621094
0.26171875 0.15527344 -0.61523438
0.2644043 0.15576172 -0.6171875
0.26757812 0.15661621 -0.62011719
0.2800293 0.15710449 -0.62207031
0.18261719 0.14782715 -0.59326172
0.1854248 0.14868164 -0.59619141
0.18664551 0.14819336 -0.59423828
0.1887207 0.1484375 -0.59521484
0.19189453 0.14941406 -0.59912109
0.19372559 0.14941406 -0.59912109
0.19396973 0.14819336 -0.59423828
0.19750977 0.14941406 -0.59912109
0.19934082 0.14941406 -0.59912109
0.20153809 0.1496582 -0.60009766
0.20336914 0.1496582 -0.60009766
0.20483398 0.14941406 -0.59912109
0.20568848 0.14868164 -0.59619141
0.20898438 0.1496582 -0.60009766
0.21044922 0.14941406 -0.59912109
0.21228027 0.14941406 -0.59912109
0.21447754 0.1496582 -0.60009766
0.24145508 0.15136719 -0.60693359
0.24682617 0.15234375 -0.61132812
0.24914551 0.15258789 -0.61230469
0.18481445 0.14624023 -0.59423828
0.18688965 0.14648438 -0.59521484
0.1887207 0.14648438 -0.59521484
0.19226074 0.14782715 -0.60009766
0.1940918 0.14782715 -0.60009766
0.19592285 0.14782715 -0.60009766
0.19848633 0.14831543 -0.60205078
0.20300293 0.14758301 -0.59912109
0.20483398 0.14758301 -0.59912109
0.20568848 0.14685059 -0.59619141
0.20751953 0.14685059 -0.59619141
0.21008301 0.14733887 -0.59814453
0.18261719 0.14416504 -0.59326172
0.18481445 0.14440918 -0.59423828
0.18664551 0.14440918 -0.59423828
0.1887207 0.14465332 -0.59521484
0.19067383 0.14465332 -0.59521484
0.19250488 0.14465332 -0.59521484
0.19494629 0.1451416 -0.59716797
0.19641113 0.14489746 -0.59619141
0.1986084 0.1451416 -0.59716797
0.20043945 0.1451416 -0.59716797
0.20300293 0.14562988 -0.59912109
0.20483398 0.14562988 -0.59912109
0.20568848 0.14489746 -0.59619141
0.20751953 0.14489746 -0.59619141
0.20935059 0.14489746 -0.59619141
0.18078613 0.14233398 -0.59326172
0.18261719 0.14233398 -0.59326172
0.18481445 0.14257812 -0.59423828
0.18664551 0.14257812 -0.59423828
0.1887207 0.14282227 -0.59521484
0.19067383 0.14282227 -0.59521484
0.19311523 0.14331055 -0.59716797
0.19592285 0.14404297 -0.60009766
0.19775391 0.14404297 -0.60009766
0.19934082 0.14379883 -0.59912109
0.20117188 0.14379883 -0.59912109
0.20300293 0.14379883 -0.59912109
0.20385742 0.14306641 -0.59619141
0.20568848 0.14306641 -0.59619141
0.20751953 0.14306641 -0.59619141
0.18505859 0.14099121 -0.59521484
0.18664551 0.14074707 -0.59423828
0.1887207 0.14099121 -0.59521484
0.19128418 0.14147949 -0.59716797
0.19311523 0.14147949 -0.59716797
0.19494629 0.14147949 -0.59716797
0.19616699 0.14099121 -0.59521484
0.19763184 0.14074707 -0.59423828
0.20019531 0.14123535 -0.59619141
0.20202637 0.14123535 -0.59619141
0.20385742 0.14123535 -0.59619141
0.20568848 0.14123535 -0.59619141
0.20715332 0.14099121 -0.59521484
0.18322754 0.13916016 -0.59521484
0.18481445 0.13891602 -0.59423828
0.18664551 0.13891602 -0.59423828
0.18945312 0.13964844 -0.59716797
0.19250488 0.140625 -0.60107422
0.19445801 0.140625 -0.60107422
0.19665527 0.14086914 -0.60205078
0.19616699 0.13916016 -0.59521484
0.19763184 0.13891602 -0.59423828
0.19946289 0.13891602 -0.59423828
0.20129395 0.13891602 -0.59423828
0.203125 0.13891602 -0.59423828
0.20495605 0.13891602 -0.59423828
0.20678711 0.13891602 -0.59423828
0.18322754 0.1373291 -0.59521484
0.1854248 0.13757324 -0.59619141
0.13134766 0.09197998 -0.3984375
0.13256836 0.09197998 -0.3984375
0.13659668 0.092163086 -0.39941406
0.13781738 0.092163086 -0.39941406
0.1394043 0.092407227 -0.40039062
0.12756348 0.090698242 -0.3984375
0.12878418 0.090698242 -0.3984375
0.13000488 0.090698242 -0.3984375
0.13134766 0.090698242 -0.3984375
0.13256836 0.090698242 -0.3984375
0.13378906 0.090698242 -0.3984375
0.13537598 0.090942383 -0.39941406
0.13659668 0.090942383 -0.39941406
0.13781738 0.090942383 -0.39941406
0.13903809 0.090942383 -0.39941406
0.140625 0.091186523 -0.40039062
0.1418457 0.091186523 -0.40039062
0.12573242 0.08996582 -0.40039062
0.12695312 0.08996582 -0.40039062
0.1282959 0.08996582 -0.40039062
0.12878418 0.089477539 -0.3984375
0.13000488 0.089477539 -0.3984375
0.13134766 0.089477539 -0.3984375
0.13256836 0.089477539 -0.3984375
0.1340332 0.08972168 -0.39941406
0.13537598 0.08972168 -0.39941406
0.13513184 0.088806152 -0.39550781
0.13781738 0.08972168 -0.39941406
0.13903809 0.08972168 -0.39941406
0.140625 0.08996582 -0.40039062
0.1418457 0.08996582 -0.40039062
0.1427002 0.08972168 -0.39941406
0.1439209 0.08972168 -0.39941406
0.15319824 0.088623047 -0.39453125
0.15429688 0.088623047 -0.39453125
0.065368652 0.10272217 -0.46362305
0.066833496 0.10272217 -0.46362305
0.067810059 0.10205078 -0.46069336
0.068786621 0.10137939 -0.45776367
0.069885254 0.10095215 -0.45556641
0.070983887 0.1005249 -0.45361328
0.07220459 0.10028076 -0.45263672
0.073486328 0.10003662 -0.45166016
0.074829102 0.10003662 -0.45166016
0.07623291 0.10003662 -0.45166016
0.087463379 0.10339355 -0.46679688
0.09777832 0.10516357 -0.47485352
0.099243164 0.10516357 -0.47485352
0.10089111 0.10540771 -0.47583008
0.10235596 0.10540771 -0.47583008
0.10406494 0.10559082 -0.47680664
0.10552979 0.10559082 -0.47680664
0.10681152 0.10540771 -0.47583008
0.11975098 0.10516357 -0.47485352
0.12487793 0.088928223 -0.40136719
0.12548828 0.088500977 -0.39941406
0.12609863 0.088012695 -0.39746094
0.12792969 0.088500977 -0.39941406
0.12878418 0.088256836 -0.3984375
0.13000488 0.088256836 -0.3984375
0.13134766 0.088256836 -0.3984375
0.13256836 0.088256836 -0.3984375
0.13378906 0.088256836 -0.3984375
0.13500977 0.088256836 -0.3984375
0.13623047 0.088256836 -0.3984375
0.13745117 0.088256836 -0.3984375
0.13903809 0.088500977 -0.39941406
0.140625 0.088684082 -0.40039062
0.14147949 0.088500977 -0.39941406
0.1427002 0.088500977 -0.39941406
0.1439209 0.088500977 -0.39941406
0.14489746 0.088256836 -0.3984375
0.14611816 0.088256836 -0.3984375
0.14697266 0.088012695 -0.39746094
0.14660645 0.087158203 -0.39331055
0.14746094 0.086914062 -0.39233398
0.14990234 0.087585449 -0.39550781
0.15112305 0.087585449 -0.39550781
0.15234375 0.087585449 -0.39550781
0.15319824 0.087402344 -0.39453125
0.15429688 0.087402344 -0.39453125
0.27148438 0.13269043 -0.59912109
0.27416992 0.13317871 -0.60107422
0.065551758 0.10150146 -0.46459961
0.066650391 0.10107422 -0.46264648
0.067810059 0.10064697 -0.46069336
0.068908691 0.10021973 -0.45874023
0.070068359 0.099731445 -0.45654297
0.071105957 0.099304199 -0.45458984
0.072387695 0.099121094 -0.45361328
0.073608398 0.098876953 -0.45263672
0.075012207 0.098876953 -0.45263672
0.076599121 0.099121094 -0.45361328
0.078186035 0.099304199 -0.45458984
0.08026123 0.10021973 -0.45874023
0.08203125 0.10064697 -0.46069336
0.083862305 0.10107422 -0.46264648
0.08581543 0.10174561 -0.46557617
0.087463379 0.10192871 -0.46679688
0.089111328 0.10217285 -0.46777344
0.090698242 0.10235596 -0.46875
0.092590332 0.10284424 -0.47070312
0.093994141 0.10284424 -0.47070312
0.09588623 0.10327148 -0.47265625
0.09753418 0.10345459 -0.47363281
0.098999023 0.10345459 -0.47363281
0.10070801 0.10369873 -0.47485352
0.10217285 0.10369873 -0.47485352
0.10406494 0.10412598 -0.47680664
0.10552979 0.10412598 -0.47680664
0.10681152 0.10394287 -0.47583008
0.10827637 0.10394287 -0.47583008
0.10974121 0.10394287 -0.47583008
0.11120605 0.10394287 -0.47583008
0.1126709 0.10394287 -0.47583008
0.1138916 0.10369873 -0.47485352
0.11535645 0.10369873 -0.47485352
0.11682129 0.10369873 -0.47485352
0.11828613 0.10369873 -0.47485352
0.11975098 0.10369873 -0.47485352
0.121521 0.10394287 -0.47583008
0.12457275 0.087463379 -0.40039062
0.12548828 0.087280273 -0.39941406
0.12634277 0.087036133 -0.3984375
0.12731934 0.086791992 -0.39746094
0.12915039 0.087280273 -0.39941406
0.13037109 0.087280273 -0.39941406
0.1315918 0.087280273 -0.39941406
0.13220215 0.086791992 -0.39746094
0.13378906 0.087036133 -0.3984375
0.13500977 0.087036133 -0.3984375
0.13623047 0.087036133 -0.3984375
0.13781738 0.087280273 -0.39941406
0.1394043 0.087463379 -0.40039062
0.140625 0.087463379 -0.40039062
0.1418457 0.087463379 -0.40039062
0.1427002 0.087280273 -0.39941406
0.14355469 0.087036133 -0.3984375
0.14489746 0.087036133 -0.3984375
0.14611816 0.087036133 -0.3984375
0.14697266 0.086791992 -0.39746094
0.14819336 0.086791992 -0.39746094
0.14782715 0.0859375 -0.39331055
0.14868164 0.085693359 -0.39233398
0.15112305 0.086364746 -0.39550781
0.15234375 0.086364746 -0.39550781
0.15356445 0.086364746 -0.39550781
0.15478516 0.086364746 -0.39550781
0.15600586 0.086364746 -0.39550781
0.27148438 0.13085938 -0.59912109
0.27392578 0.13110352 -0.60009766
0.27661133 0.13146973 -0.60205078
0.065551758 0.10009766 -0.46459961
0.066833496 0.099853516 -0.46362305
0.067932129 0.09942627 -0.46166992
0.069091797 0.098999023 -0.4597168
0.07019043 0.098571777 -0.45776367
0.071289062 0.098144531 -0.45556641
0.072570801 0.097900391 -0.45458984
0.073791504 0.097717285 -0.45361328
0.075195312 0.097717285 -0.45361328
0.076782227 0.097900391 -0.45458984
0.078308105 0.098144531 -0.45556641
0.080078125 0.098571777 -0.45776367
0.081848145 0.098999023 -0.4597168
0.083679199 0.09942627 -0.46166992
0.085632324 0.10009766 -0.46459961
0.087463379 0.1005249 -0.46679688
0.089111328 0.10070801 -0.46777344
0.090698242 0.10095215 -0.46875
0.092346191 0.10113525 -0.46972656
0.093994141 0.10137939 -0.47070312
0.095703125 0.1015625 -0.47167969
0.097351074 0.10180664 -0.47265625
0.098815918 0.10180664 -0.47265625
0.10046387 0.10198975 -0.47363281
0.10235596 0.10247803 -0.47583008
0.1038208 0.10247803 -0.47583008
0.10534668 0.10247803 -0.47583008
0.10656738 0.10223389 -0.47485352
0.10827637 0.10247803 -0.47583008
0.10974121 0.10247803 -0.47583008
0.11364746 0.10198975 -0.47363281
0.1151123 0.10198975 -0.47363281
0.11657715 0.10198975 -0.47363281
0.11828613 0.10223389 -0.47485352
0.11975098 0.10223389 -0.47485352
0.12121582 0.10223389 -0.47485352
0.1227417 0.10223389 -0.47485352
0.12420654 0.10223389 -0.47485352
0.12487793 0.086425781 -0.40136719
0.12573242 0.086242676 -0.40039062
0.12634277 0.08581543 -0.3984375
0.12756348 0.08581543 -0.3984375
0.12878418 0.08581543 -0.3984375
0.13037109 0.085998535 -0.39941406
0.13134766 0.08581543 -0.3984375
0.13256836 0.08581543 -0.3984375
0.13378906 0.08581543 -0.3984375
0.13537598 0.085998535 -0.39941406
0.13659668 0.085998535 -0.39941406
0.13781738 0.085998535 -0.39941406
0.1394043 0.086242676 -0.40039062
0.140625 0.086242676 -0.40039062
0.14111328 0.08581543 -0.3984375
0.14306641 0.086242676 -0.40039062
0.14355469 0.08581543 -0.3984375
0.14489746 0.08581543 -0.3984375
0.14611816 0.08581543 -0.3984375
0.14697266 0.085571289 -0.39746094
0.14782715 0.085388184 -0.39648438
0.14904785 0.085388184 -0.39648438
0.15026855 0.085388184 -0.39648438
0.15112305 0.085144043 -0.39550781
0.15234375 0.085144043 -0.39550781
0.15356445 0.085144043 -0.39550781
0.15478516 0.085144043 -0.39550781
0.15600586 0.085144043 -0.39550781
0.27148438 0.12902832 -0.59912109
0.27416992 0.12939453 -0.60107422
0.27661133 0.12963867 -0.60205078
0.27978516 0.13024902 -0.60498047
0.28271484 0.1307373 -0.60693359
0.065673828 0.098815918 -0.46557617
0.066955566 0.098632812 -0.46459961
0.068115234 0.098205566 -0.46264648
0.069396973 0.098022461 -0.46166992
0.070373535 0.097351074 -0.45874023
0.071472168 0.096923828 -0.45654297
0.072692871 0.096740723 -0.45556641
0.073974609 0.096496582 -0.45458984
0.075378418 0.096496582 -0.45458984
0.076904297 0.096740723 -0.45556641
0.078491211 0.096923828 -0.45654297
0.080078125 0.097167969 -0.45776367
0.081848145 0.097595215 -0.4597168
0.083679199 0.098022461 -0.46166992
0.085449219 0.098449707 -0.46362305
0.087280273 0.098815918 -0.46557617
0.088867188 0.099060059 -0.46679688
0.090515137 0.099243164 -0.46777344
0.092163086 0.099487305 -0.46875
0.093811035 0.09967041 -0.46972656
0.095275879 0.09967041 -0.46972656
0.096923828 0.099914551 -0.47070312
0.098388672 0.099914551 -0.47070312
0.10003662 0.10009766 -0.47167969
0.10150146 0.10009766 -0.47167969
0.10321045 0.1003418 -0.47265625
0.10467529 0.1003418 -0.47265625
0.10614014 0.1003418 -0.47265625
0.10760498 0.1003418 -0.47265625
0.10925293 0.1005249 -0.47363281
0.11340332 0.1003418 -0.47265625
0.11486816 0.1003418 -0.47265625
0.11633301 0.1003418 -0.47265625
0.11804199 0.1005249 -0.47363281
0.11950684 0.1005249 -0.47363281
0.12097168 0.1005249 -0.47363281
0.12243652 0.1005249 -0.47363281
0.12390137 0.1005249 -0.47363281
0.12536621 0.1005249 -0.47363281
0.12683105 0.1005249 -0.47363281
0.12548828 0.084777832 -0.39941406
0.12670898 0.084777832 -0.39941406
0.12792969 0.084777832 -0.39941406
0.12915039 0.084777832 -0.39941406
0.13037109 0.084777832 -0.39941406
0.13134766 0.084594727 -0.3984375
0.13220215 0.084350586 -0.39746094
0.13378906 0.084594727 -0.3984375
0.13537598 0.084777832 -0.39941406
0.13659668 0.084777832 -0.39941406
0.13781738 0.084777832 -0.39941406
0.1394043 0.085021973 -0.40039062
0.140625 0.085021973 -0.40039062
0.14111328 0.084594727 -0.3984375
0.14233398 0.084594727 -0.3984375
0.14355469 0.084594727 -0.3984375
0.14489746 0.084594727 -0.3984375
0.14575195 0.084350586 -0.39746094
0.14697266 0.084350586 -0.39746094
0.14819336 0.084350586 -0.39746094
0.14904785 0.08416748 -0.39648438
0.15026855 0.08416748 -0.39648438
0.15112305 0.08392334 -0.39550781
0.15270996 0.08416748 -0.39648438
0.15356445 0.08392334 -0.39550781
0.15478516 0.08392334 -0.39550781
0.15600586 0.08392334 -0.39550781
0.27416992 0.12756348 -0.60107422
0.27709961 0.12805176 -0.60302734
0.27978516 0.12841797 -0.60498047
0.28271484 0.12890625 -0.60693359
0.065795898 0.097595215 -0.46679688
0.067077637 0.097412109 -0.46557617
0.06842041 0.097167969 -0.46459961
0.069519043 0.096801758 -0.46264648
0.070495605 0.096130371 -0.4597168
0.071594238 0.095703125 -0.45776367
0.072875977 0.09552002 -0.45654297
0.07409668 0.095336914 -0.45556641
0.075500488 0.095336914 -0.45556641
0.076904297 0.095336914 -0.45556641
0.078491211 0.09552002 -0.45654297
0.080078125 0.095703125 -0.45776367
0.081848145 0.096130371 -0.4597168
0.083679199 0.096557617 -0.46166992
0.085266113 0.096801758 -0.46264648
0.087097168 0.097167969 -0.46459961
0.088684082 0.097412109 -0.46557617
0.090332031 0.097595215 -0.46679688
0.091796875 0.097595215 -0.46679688
0.093444824 0.097839355 -0.46777344
0.094848633 0.097839355 -0.46777344
0.096496582 0.098022461 -0.46875
0.097961426 0.098022461 -0.46875
0.099609375 0.098266602 -0.46972656
0.10107422 0.098266602 -0.46972656
0.10253906 0.098266602 -0.46972656
0.10418701 0.098449707 -0.47070312
0.10565186 0.098449707 -0.47070312
0.10687256 0.098266602 -0.46972656
0.1083374 0.098266602 -0.46972656
0.10955811 0.098022461 -0.46875
0.11126709 0.098266602 -0.46972656
0.11291504 0.098449707 -0.47070312
0.11462402 0.098693848 -0.47167969
0.11608887 0.098693848 -0.47167969
0.11755371 0.098693848 -0.47167969
0.1192627 0.098876953 -0.47265625
0.12072754 0.098876953 -0.47265625
0.12219238 0.098876953 -0.47265625
0.12341309 0.098693848 -0.47167969
0.12457275 0.098449707 -0.47070312
0.12597656 0.098449707 -0.47070312
0.12744141 0.098449707 -0.47070312
0.13012695 0.098266602 -0.46972656
0.13098145 0.097839355 -0.46777344
0.13269043 0.098022461 -0.46875
0.13476562 0.098449707 -0.47070312
0.13586426 0.098266602 -0.46972656
0.12792969 0.083557129 -0.39941406
0.13781738 0.083557129 -0.39941406
0.13903809 0.083557129 -0.39941406
0.14025879 0.083557129 -0.39941406
0.14074707 0.083129883 -0.39746094
0.14196777 0.083129883 -0.39746094
0.14355469 0.083312988 -0.3984375
0.14489746 0.083312988 -0.3984375
0.14575195 0.083129883 -0.39746094
0.15270996 0.082946777 -0.39648438
0.15393066 0.082946777 -0.39648438
0.15515137 0.082946777 -0.39648438
0.15637207 0.082946777 -0.39648438
0.2746582 0.12597656 -0.60205078
0.27709961 0.12609863 -0.60302734
0.27978516 0.12658691 -0.60498047
0.28271484 0.12695312 -0.60693359
0.30615234 0.12658691 -0.60498047
0.30737305 0.12634277 -0.60400391
0.30883789 0.12609863 -0.60302734
0.31005859 0.12597656 -0.60205078
0.31201172 0.12597656 -0.60205078
0.3137207 0.12597656 -0.60205078
0.066101074 0.096557617 -0.46875
0.067382812 0.096374512 -0.46777344
0.06854248 0.095947266 -0.46557617
0.069702148 0.095581055 -0.46362305
0.070800781 0.095153809 -0.46166992
0.071899414 0.094726562 -0.4597168
0.073181152 0.094543457 -0.45874023
0.074279785 0.094116211 -0.45654297
0.075683594 0.094116211 -0.45654297
0.076904297 0.09387207 -0.45556641
0.078491211 0.094116211 -0.45654297
0.080078125 0.094299316 -0.45776367
0.081848145 0.094726562 -0.4597168
0.083496094 0.094909668 -0.46069336
0.085266113 0.095336914 -0.46264648
0.086914062 0.095581055 -0.46362305
0.088500977 0.09576416 -0.46459961
0.08996582 0.09576416 -0.46459961
0.091552734 0.095947266 -0.46557617
0.093017578 0.095947266 -0.46557617
0.094482422 0.095947266 -0.46557617
0.09588623 0.095947266 -0.46557617
0.09753418 0.096191406 -0.46679688
0.098999023 0.096191406 -0.46679688
0.10046387 0.096191406 -0.46679688
0.10186768 0.096191406 -0.46679688
0.10333252 0.096191406 -0.46679688
0.10498047 0.096374512 -0.46777344
0.10644531 0.096374512 -0.46777344
0.10766602 0.096191406 -0.46679688
0.10931396 0.096374512 -0.46777344
0.11077881 0.096374512 -0.46777344
0.11248779 0.096557617 -0.46875
0.11413574 0.096801758 -0.46972656
0.11560059 0.096801758 -0.46972656
0.11730957 0.096984863 -0.47070312
0.11901855 0.097229004 -0.47167969
0.12023926 0.096984863 -0.47070312
0.12164307 0.096984863 -0.47070312
0.12310791 0.096984863 -0.47070312
0.12432861 0.096801758 -0.46972656
0.12548828 0.096557617 -0.46875
0.12670898 0.096374512 -0.46777344
0.12780762 0.096191406 -0.46679688
0.12927246 0.096191406 -0.46679688
0.1307373 0.096191406 -0.46679688
0.13244629 0.096374512 -0.46777344
0.13391113 0.096374512 -0.46777344
0.13586426 0.096801758 -0.46972656
0.13793945 0.097229004 -0.47167969
0.1517334 0.084594727 -0.41040039
0.15307617 0.084594727 -0.41040039
0.15539551 0.085205078 -0.41357422
0.15515137 0.084350586 -0.40942383
0.15576172 0.083374023 -0.40454102
0.27514648 0.12432861 -0.60302734
0.27758789 0.12451172 -0.60400391
0.28027344 0.12493896 -0.60595703
0.28320312 0.12536621 -0.60791016
0.30664062 0.12493896 -0.60595703
0.30786133 0.12469482 -0.60498047
0.30932617 0.12451172 -0.60400391
0.31054688 0.12432861 -0.60302734
0.3125 0.12432861 -0.60302734
0.3137207 0.12408447 -0.60205078
0.066223145 0.095336914 -0.46972656
0.067565918 0.095153809 -0.46875
0.068664551 0.094726562 -0.46679688
0.069824219 0.094299316 -0.46459961
0.070983887 0.093933105 -0.46264648
0.07208252 0.093505859 -0.46069336
0.073181152 0.093078613 -0.45874023
0.074462891 0.092895508 -0.45776367
0.075683594 0.092712402 -0.45654297
0.076904297 0.092468262 -0.45556641
0.078308105 0.092468262 -0.45556641
0.079772949 0.092468262 -0.45556641
0.081665039 0.093078613 -0.45874023
0.083312988 0.093322754 -0.4597168
0.084899902 0.093505859 -0.46069336
0.086486816 0.093688965 -0.46166992
0.088134766 0.093933105 -0.46264648
0.089782715 0.094116211 -0.46362305
0.091186523 0.094116211 -0.46362305
0.092407227 0.093933105 -0.46264648
0.09387207 0.093933105 -0.46264648
0.095275879 0.093933105 -0.46264648
0.096679688 0.093933105 -0.46264648
0.098327637 0.094116211 -0.46362305
0.09954834 0.093933105 -0.46264648
0.10119629 0.094116211 -0.46362305
0.10266113 0.094116211 -0.46362305
0.10430908 0.094299316 -0.46459961
0.10577393 0.094299316 -0.46459961
0.10717773 0.094299316 -0.46459961
0.10888672 0.094543457 -0.46557617
0.11029053 0.094543457 -0.46557617
0.11199951 0.094726562 -0.46679688
0.11364746 0.094909668 -0.46777344
0.1151123 0.094909668 -0.46777344
0.11657715 0.094909668 -0.46777344
0.11877441 0.09552002 -0.47070312
0.11968994 0.095153809 -0.46875
0.12115479 0.095153809 -0.46875
0.12261963 0.095153809 -0.46875
0.1237793 0.094909668 -0.46777344
0.12524414 0.094909668 -0.46777344
0.12634277 0.094726562 -0.46679688
0.12756348 0.094543457 -0.46557617
0.12902832 0.094543457 -0.46557617
0.13012695 0.094299316 -0.46459961
0.13220215 0.094726562 -0.46679688
0.13354492 0.094726562 -0.46679688
0.13586426 0.095336914 -0.46972656
0.13769531 0.09552002 -0.47070312
0.13916016 0.09552002 -0.47070312
0.1394043 0.09185791 -0.45263672
0.14355469 0.080871582 -0.3984375
0.14526367 0.081054688 -0.39941406
0.15124512 0.083740234 -0.41259766
0.15209961 0.083496094 -0.41137695
0.15380859 0.083740234 -0.41259766
0.30761719 0.12347412 -0.60791016
0.30834961 0.12304688 -0.60595703
0.30981445 0.12286377 -0.60498047
0.31103516 0.12261963 -0.60400391
0.3125 0.12243652 -0.60302734
0.31445312 0.12243652 -0.60302734
0.066345215 0.094116211 -0.47070312
0.067565918 0.093688965 -0.46875
0.068847656 0.093505859 -0.46777344
0.070007324 0.093078613 -0.46557617
0.071105957 0.092712402 -0.46362305
0.07208252 0.092102051 -0.46069336
0.073181152 0.091674805 -0.45874023
0.074462891 0.091491699 -0.45776367
0.075500488 0.091064453 -0.45556641
0.076782227 0.090881348 -0.45458984
0.078186035 0.090881348 -0.45458984
0.079589844 0.090881348 -0.45458984
0.080810547 0.090698242 -0.45361328
0.082763672 0.091308594 -0.45654297
0.084533691 0.091674805 -0.45874023
0.086303711 0.092102051 -0.46069336
0.087524414 0.09185791 -0.4597168
0.089355469 0.092285156 -0.46166992
0.090576172 0.092102051 -0.46069336
0.091796875 0.09185791 -0.4597168
0.092834473 0.091491699 -0.45776367
0.094238281 0.091491699 -0.45776367
0.09588623 0.091674805 -0.45874023
0.097473145 0.09185791 -0.4597168
0.098937988 0.09185791 -0.4597168
0.10076904 0.092285156 -0.46166992
0.10223389 0.092285156 -0.46166992
0.1036377 0.092285156 -0.46166992
0.10528564 0.092468262 -0.46264648
0.10675049 0.092468262 -0.46264648
0.1081543 0.092468262 -0.46264648
0.10980225 0.092712402 -0.46362305
0.11151123 0.092895508 -0.46459961
0.11291504 0.092895508 -0.46459961
0.11462402 0.093078613 -0.46557617
0.11602783 0.093078613 -0.46557617
0.11724854 0.092895508 -0.46459961
0.11920166 0.093261719 -0.46679688
0.12060547 0.093261719 -0.46679688
0.12207031 0.093261719 -0.46679688
0.12322998 0.093078613 -0.46557617
0.12469482 0.093078613 -0.46557617
0.12585449 0.092895508 -0.46459961
0.12731934 0.092895508 -0.46459961
0.12841797 0.092712402 -0.46362305
0.12988281 0.092712402 -0.46362305
0.13098145 0.092468262 -0.46264648
0.13415527 0.093688965 -0.46875
0.13586426 0.09387207 -0.46972656
0.13769531 0.094116211 -0.47070312
0.13916016 0.094116211 -0.47070312
0.14123535 0.091674805 -0.45874023
0.14196777 0.091308594 -0.45654297
0.14465332 0.092102051 -0.46069336
0.14611816 0.092102051 -0.46069336
0.14526367 0.079833984 -0.39941406
0.15124512 0.082458496 -0.41259766
0.15209961 0.082275391 -0.41137695
0.15222168 0.081665039 -0.40844727
0.15466309 0.082275391 -0.41137695
0.15441895 0.081420898 -0.4074707
0.15563965 0.081420898 -0.4074707
0.15661621 0.081237793 -0.40649414
0.15783691 0.081237793 -0.40649414
0.30810547 0.12176514 -0.609375
0.30883789 0.12139893 -0.60693359
0.31030273 0.12115479 -0.60595703
0.31176758 0.12097168 -0.60498047
0.31298828 0.12078857 -0.60400391
0.064147949 0.09362793 -0.47583008
0.065490723 0.093444824 -0.47485352
0.06652832 0.092834473 -0.47167969
0.067810059 0.092651367 -0.47070312
0.068969727 0.092224121 -0.46875
0.070007324 0.091674805 -0.46557617
0.071105957 0.091247559 -0.46362305
0.07208252 0.090637207 -0.46069336
0.073181152 0.090270996 -0.45874023
0.074279785 0.08984375 -0.45654297
0.075378418 0.089477539 -0.45458984
0.076599121 0.089294434 -0.45361328
0.077819824 0.089050293 -0.45263672
0.079223633 0.089050293 -0.45263672
0.08026123 0.088684082 -0.45068359
0.081481934 0.088500977 -0.44970703
0.083435059 0.089050293 -0.45263672
0.085021973 0.089294434 -0.45361328
0.086608887 0.089477539 -0.45458984
0.088012695 0.089477539 -0.45458984
0.090026855 0.090087891 -0.45776367
0.091003418 0.089660645 -0.45556641
0.092224121 0.089477539 -0.45458984
0.093811035 0.089660645 -0.45556641
0.095214844 0.089660645 -0.45556641
0.096862793 0.08984375 -0.45654297
0.098266602 0.08984375 -0.45654297
0.099914551 0.090087891 -0.45776367
0.1015625 0.090270996 -0.45874023
0.10296631 0.090270996 -0.45874023
0.10461426 0.090454102 -0.4597168
0.10601807 0.090454102 -0.4597168
0.10766602 0.090637207 -0.46069336
0.109375 0.090881348 -0.46166992
0.11077881 0.090881348 -0.46166992
0.11242676 0.091064453 -0.46264648
0.1138916 0.091064453 -0.46264648
0.11529541 0.091064453 -0.46264648
0.11676025 0.091064453 -0.46264648
0.1184082 0.091247559 -0.46362305
0.11987305 0.091247559 -0.46362305
0.12127686 0.091247559 -0.46362305
0.1227417 0.091247559 -0.46362305
0.12414551 0.091247559 -0.46362305
0.12524414 0.091064453 -0.46264648
0.12670898 0.091064453 -0.46264648
0.12817383 0.091064453 -0.46264648
0.12927246 0.090881348 -0.46166992
0.1307373 0.090881348 -0.46166992
0.13232422 0.089050293 -0.45263672
0.13439941 0.089477539 -0.45458984
0.13574219 0.089477539 -0.45458984
0.13720703 0.089477539 -0.45458984
0.13830566 0.089294434 -0.45361328
0.14086914 0.090087891 -0.45776367
0.14257812 0.090270996 -0.45874023
0.14440918 0.090454102 -0.4597168
0.14611816 0.090637207 -0.46069336
0.15124512 0.081176758 -0.41259766
0.15136719 0.080566406 -0.40942383
0.15185547 0.080200195 -0.4074707
0.15429688 0.080810547 -0.41040039
0.15405273 0.08001709 -0.40649414
0.15527344 0.08001709 -0.40649414
0.15661621 0.08001709 -0.40649414
0.15820312 0.080200195 -0.4074707
0.30810547 0.11987305 -0.609375
0.30932617 0.11968994 -0.60791016
0.31030273 0.11932373 -0.60595703
0.31176758 0.11914062 -0.60498047
0.31347656 0.11914062 -0.60498047
0.062805176 0.092346191 -0.47680664
0.064147949 0.092163086 -0.47583008
0.065490723 0.09197998 -0.47485352
0.066650391 0.091552734 -0.47265625
0.067810059 0.091186523 -0.47070312
0.068969727 0.090820312 -0.46875
0.070007324 0.090209961 -0.46557617
0.071105957 0.08984375 -0.46362305
0.07208252 0.089233398 -0.46069336
0.073181152 0.088867188 -0.45874023
0.074279785 0.088439941 -0.45654297
0.075195312 0.087890625 -0.45361328
0.076416016 0.08770752 -0.45263672
0.077636719 0.087463379 -0.45166016
0.078857422 0.087280273 -0.45068359
0.07989502 0.086914062 -0.44873047
0.081115723 0.086730957 -0.44750977
0.082702637 0.086914062 -0.44873047
0.084411621 0.087280273 -0.45068359
0.087402344 0.087463379 -0.45166016
0.088623047 0.087280273 -0.45068359
0.090209961 0.087463379 -0.45166016
0.091796875 0.08770752 -0.45263672
0.093200684 0.08770752 -0.45263672
0.094604492 0.08770752 -0.45263672
0.096252441 0.087890625 -0.45361328
0.097839355 0.08807373 -0.45458984
0.099243164 0.08807373 -0.45458984
0.10089111 0.088256836 -0.45556641
0.10253906 0.088439941 -0.45654297
0.10394287 0.088439941 -0.45654297
0.10559082 0.088623047 -0.45776367
0.10723877 0.088867188 -0.45874023
0.10864258 0.088867188 -0.45874023
0.11029053 0.089050293 -0.4597168
0.11169434 0.089050293 -0.4597168
0.11340332 0.089233398 -0.46069336
0.11480713 0.089233398 -0.46069336
0.11621094 0.089233398 -0.46069336
0.11767578 0.089233398 -0.46069336
0.11932373 0.089416504 -0.46166992
0.12078857 0.089416504 -0.46166992
0.12219238 0.089416504 -0.46166992
0.12359619 0.089416504 -0.46166992
0.125 0.089416504 -0.46166992
0.1262207 0.089233398 -0.46069336
0.12756348 0.089233398 -0.46069336
0.12902832 0.089233398 -0.46069336
0.13012695 0.089050293 -0.4597168
0.1307373 0.088439941 -0.45654297
0.13183594 0.088256836 -0.45556641
0.13293457 0.08807373 -0.45458984
0.1340332 0.087890625 -0.45361328
0.13513184 0.08770752 -0.45263672
0.13684082 0.087890625 -0.45361328
0.13830566 0.087890625 -0.45361328
0.14001465 0.08807373 -0.45458984
0.14257812 0.088867188 -0.45874023
0.14440918 0.089050293 -0.4597168
0.14611816 0.089233398 -0.46069336
0.14978027 0.079101562 -0.40844727
0.15100098 0.079101562 -0.40844727
0.15185547 0.078918457 -0.4074707
0.15429688 0.079528809 -0.41040039
0.15368652 0.078552246 -0.40551758
0.15490723 0.078552246 -0.40551758
0.15661621 0.078735352 -0.40649414
0.15820312 0.078918457 -0.4074707
0.15991211 0.079101562 -0.40844727
0.16113281 0.079101562 -0.40844727
0.1628418 0.079345703 -0.40942383
0.06161499 0.091247559 -0.47875977
0.062805176 0.090881348 -0.47680664
0.064147949 0.090698242 -0.47583008
0.065490723 0.090515137 -0.47485352
0.066650391 0.090087891 -0.47265625
0.067993164 0.089904785 -0.47167969
0.068969727 0.089355469 -0.46875
0.070129395 0.088989258 -0.46679688
0.071105957 0.088378906 -0.46362305
0.07208252 0.08782959 -0.46069336
0.073181152 0.087402344 -0.45874023
0.07409668 0.086853027 -0.45556641
0.075012207 0.086303711 -0.45263672
0.07623291 0.08605957 -0.45166016
0.077270508 0.085693359 -0.44970703
0.078491211 0.085510254 -0.44873047
0.079711914 0.085327148 -0.44750977
0.080932617 0.085144043 -0.4465332
0.08190918 0.084777832 -0.44458008
0.083312988 0.084777832 -0.44458008
0.084899902 0.084960938 -0.44555664
0.086669922 0.085327148 -0.44750977
0.088012695 0.085327148 -0.44750977
0.089599609 0.085510254 -0.44873047
0.091186523 0.085693359 -0.44970703
0.092773438 0.085876465 -0.45068359
0.094177246 0.085876465 -0.45068359
0.095825195 0.08605957 -0.45166016
0.097412109 0.086303711 -0.45263672
0.098815918 0.086303711 -0.45263672
0.10040283 0.086486816 -0.45361328
0.10205078 0.086669922 -0.45458984
0.10345459 0.086669922 -0.45458984
0.10510254 0.086853027 -0.45556641
0.10650635 0.086853027 -0.45556641
0.1081543 0.087036133 -0.45654297
0.10955811 0.087036133 -0.45654297
0.11096191 0.087036133 -0.45654297
0.11260986 0.087219238 -0.45776367
0.11407471 0.087219238 -0.45776367
0.11547852 0.087219238 -0.45776367
0.11712646 0.087402344 -0.45874023
0.11853027 0.087402344 -0.45874023
0.11999512 0.087402344 -0.45874023
0.12139893 0.087402344 -0.45874023
0.12310791 0.087646484 -0.4597168
0.12451172 0.087646484 -0.4597168
0.12585449 0.087646484 -0.4597168
0.1270752 0.087402344 -0.45874023
0.12841797 0.087402344 -0.45874023
0.12963867 0.087219238 -0.45776367
0.13037109 0.086853027 -0.45556641
0.1315918 0.086669922 -0.45458984
0.13293457 0.086669922 -0.45458984
0.13378906 0.086303711 -0.45263672
0.13549805 0.086486816 -0.45361328
0.13659668 0.086303711 -0.45263672
0.13830566 0.086486816 -0.45361328
0.13964844 0.086486816 -0.45361328
0.14233398 0.087219238 -0.45776367
0.15026855 0.08605957 -0.45166016
0.15087891 0.078430176 -0.41137695
0.15209961 0.078430176 -0.41137695
0.15307617 0.07824707 -0.41040039
0.15429688 0.07824707 -0.41040039
0.15368652 0.077270508 -0.40551758
0.15490723 0.077270508 -0.40551758
0.15612793 0.077270508 -0.40551758
0.15820312 0.077697754 -0.4074707
0.15991211 0.077880859 -0.40844727
0.16149902 0.078063965 -0.40942383
0.16320801 0.07824707 -0.41040039
0.16442871 0.07824707 -0.41040039
0.06161499 0.089782715 -0.47875977
0.062805176 0.089416504 -0.47680664
0.06427002 0.089416504 -0.47680664
0.065490723 0.089050293 -0.47485352
0.066772461 0.088806152 -0.47363281
0.067993164 0.088439941 -0.47167969
0.068969727 0.087890625 -0.46875
0.070129395 0.087524414 -0.46679688
0.071105957 0.086975098 -0.46362305
0.07208252 0.086364746 -0.46069336
0.072998047 0.08581543 -0.45776367
0.073974609 0.085266113 -0.45458984
0.075012207 0.084899902 -0.45263672
0.076049805 0.084533691 -0.45068359
0.077148438 0.084106445 -0.44873047
0.078369141 0.08392334 -0.44750977
0.079528809 0.083740234 -0.4465332
0.080749512 0.083557129 -0.44555664
0.08190918 0.083374023 -0.44458008
0.083129883 0.083190918 -0.44360352
0.084472656 0.083190918 -0.44360352
0.08605957 0.083374023 -0.44458008
0.087646484 0.083557129 -0.44555664
0.089233398 0.083740234 -0.4465332
0.091003418 0.084106445 -0.44873047
0.092407227 0.084106445 -0.44873047
0.093994141 0.084289551 -0.44970703
0.095397949 0.084289551 -0.44970703
0.096984863 0.084533691 -0.45068359
0.098388672 0.084533691 -0.45068359
0.099975586 0.084716797 -0.45166016
0.10137939 0.084716797 -0.45166016
0.10302734 0.084899902 -0.45263672
0.10461426 0.085083008 -0.45361328
0.10601807 0.085083008 -0.45361328
0.10766602 0.085266113 -0.45458984
0.10906982 0.085266113 -0.45458984
0.11047363 0.085266113 -0.45458984
0.11187744 0.085266113 -0.45458984
0.11328125 0.085266113 -0.45458984
0.11499023 0.085449219 -0.45556641
0.11639404 0.085449219 -0.45556641
0.11779785 0.085449219 -0.45556641
0.1194458 0.085632324 -0.45654297
0.12084961 0.085632324 -0.45654297
0.12255859 0.08581543 -0.45776367
0.1239624 0.08581543 -0.45776367
0.12536621 0.08581543 -0.45776367
0.12670898 0.08581543 -0.45776367
0.12792969 0.085632324 -0.45654297
0.12927246 0.085632324 -0.45654297
0.13037109 0.085449219 -0.45556641
0.13122559 0.085083008 -0.45361328
0.13269043 0.085083008 -0.45361328
0.13378906 0.084899902 -0.45263672
0.13513184 0.084899902 -0.45263672
0.13659668 0.084899902 -0.45263672
0.13793945 0.084899902 -0.45263672
0.13964844 0.085083008 -0.45361328
0.14074707 0.084899902 -0.45263672
0.1418457 0.084716797 -0.45166016
0.14318848 0.084716797 -0.45166016
0.14465332 0.084716797 -0.45166016
0.14672852 0.085083008 -0.45361328
0.14770508 0.084899902 -0.45263672
0.14880371 0.084716797 -0.45166016
0.15026855 0.084716797 -0.45166016
0.15161133 0.084716797 -0.45166016
0.15368652 0.085083008 -0.45361328
0.15515137 0.085083008 -0.45361328
0.15441895 0.076416016 -0.4074707
0.15527344 0.07623291 -0.40649414
0.15661621 0.07623291 -0.40649414
0.15820312 0.076416016 -0.4074707
0.15991211 0.076599121 -0.40844727
0.16149902 0.076782227 -0.40942383
0.062927246 0.088134766 -0.4777832
0.06427002 0.08795166 -0.47680664
0.065490723 0.087524414 -0.47485352
0.066650391 0.087158203 -0.47265625
0.067810059 0.086791992 -0.47070312
0.068969727 0.086425781 -0.46875
0.070129395 0.08605957 -0.46679688
0.071105957 0.085510254 -0.46362305
0.07208252 0.084960938 -0.46069336
0.072998047 0.084411621 -0.45776367
0.073974609 0.083862305 -0.45458984
0.074829102 0.083312988 -0.45166016
0.075927734 0.082946777 -0.44970703
0.076965332 0.082580566 -0.44750977
0.078186035 0.082397461 -0.4465332
0.079345703 0.082214355 -0.44555664
0.080566406 0.081970215 -0.44458008
0.081726074 0.081787109 -0.44360352
0.082946777 0.081604004 -0.44262695
0.084289551 0.081604004 -0.44262695
0.085876465 0.081787109 -0.44360352
0.087463379 0.081970215 -0.44458008
0.088989258 0.082214355 -0.44555664
0.090576172 0.082397461 -0.4465332
0.092163086 0.082580566 -0.44750977
0.093566895 0.082580566 -0.44750977
0.094970703 0.082580566 -0.44750977
0.096557617 0.082763672 -0.44873047
0.097961426 0.082763672 -0.44873047
0.09954834 0.082946777 -0.44970703
0.10095215 0.082946777 -0.44970703
0.10253906 0.083129883 -0.45068359
0.10418701 0.083312988 -0.45166016
0.10534668 0.083129883 -0.45068359
0.10675049 0.083129883 -0.45068359
0.1083374 0.083312988 -0.45166016
0.10974121 0.083312988 -0.45166016
0.11114502 0.083312988 -0.45166016
0.11254883 0.083312988 -0.45166016
0.11419678 0.083496094 -0.45263672
0.11560059 0.083496094 -0.45263672
0.11724854 0.083679199 -0.45361328
0.11865234 0.083679199 -0.45361328
0.12036133 0.083862305 -0.45458984
0.12176514 0.083862305 -0.45458984
0.12341309 0.08404541 -0.45556641
0.12481689 0.08404541 -0.45556641
0.1262207 0.08404541 -0.45556641
0.12756348 0.08404541 -0.45556641
0.12878418 0.083862305 -0.45458984
0.13012695 0.083862305 -0.45458984
0.13122559 0.083679199 -0.45361328
0.13232422 0.083496094 -0.45263672
0.13378906 0.083496094 -0.45263672
0.13513184 0.083496094 -0.45263672
0.13659668 0.083496094 -0.45263672
0.13769531 0.083312988 -0.45166016
0.13842773 0.082946777 -0.44970703
0.13977051 0.082946777 -0.44970703
0.1418457 0.083312988 -0.45166016
0.14318848 0.083312988 -0.45166016
0.14465332 0.083312988 -0.45166016
0.14672852 0.083679199 -0.45361328
0.14770508 0.083496094 -0.45263672
0.14880371 0.083312988 -0.45166016
0.15026855 0.083312988 -0.45166016
0.15161133 0.083312988 -0.45166016
0.15307617 0.083312988 -0.45166016
0.15405273 0.074951172 -0.40649414
0.15527344 0.074951172 -0.40649414
0.15661621 0.074951172 -0.40649414
0.1574707 0.074768066 -0.40551758
0.15991211 0.075317383 -0.40844727
0.16149902 0.075500488 -0.40942383
0.062805176 0.086425781 -0.47680664
0.064147949 0.086242676 -0.47583008
0.065490723 0.08605957 -0.47485352
0.066650391 0.085693359 -0.47265625
0.067810059 0.085388184 -0.47070312
0.068969727 0.085021973 -0.46875
0.070007324 0.084472656 -0.46557617
0.071105957 0.084106445 -0.46362305
0.07208252 0.083557129 -0.46069336
0.072998047 0.083007812 -0.45776367
0.073791504 0.082275391 -0.45361328
0.074707031 0.081726074 -0.45068359
0.075744629 0.081359863 -0.44873047
0.076965332 0.081176758 -0.44750977
0.07800293 0.080810547 -0.44555664
0.079162598 0.080627441 -0.44458008
0.080383301 0.080444336 -0.44360352
0.081542969 0.08026123 -0.44262695
0.082763672 0.080078125 -0.44165039
0.084106445 0.080078125 -0.44165039
0.085449219 0.080078125 -0.44165039
0.087036133 0.08026123 -0.44262695
0.088623047 0.080444336 -0.44360352
0.090209961 0.080627441 -0.44458008
0.09173584 0.080810547 -0.44555664
0.093322754 0.080993652 -0.4465332
0.094726562 0.080993652 -0.4465332
0.096130371 0.080993652 -0.4465332
0.097473145 0.080993652 -0.4465332
0.099121094 0.081176758 -0.44750977
0.10070801 0.081359863 -0.44873047
0.10211182 0.081359863 -0.44873047
0.10345459 0.081359863 -0.44873047
0.1048584 0.081359863 -0.44873047
0.10626221 0.081359863 -0.44873047
0.10766602 0.081359863 -0.44873047
0.10900879 0.081359863 -0.44873047
0.1104126 0.081359863 -0.44873047
0.11206055 0.081542969 -0.44970703
0.11346436 0.081542969 -0.44970703
0.1151123 0.081726074 -0.45068359
0.11645508 0.081726074 -0.45068359
0.11816406 0.08190918 -0.45166016
0.11950684 0.08190918 -0.45166016
0.12121582 0.082092285 -0.45263672
0.12261963 0.082092285 -0.45263672
0.12426758 0.082275391 -0.45361328
0.12561035 0.082275391 -0.45361328
0.1270752 0.082275391 -0.45361328
0.12841797 0.082275391 -0.45361328
0.12988281 0.082275391 -0.45361328
0.13098145 0.082092285 -0.45263672
0.13232422 0.082092285 -0.45263672
0.13342285 0.08190918 -0.45166016
0.1348877 0.08190918 -0.45166016
0.13623047 0.08190918 -0.45166016
0.13769531 0.08190918 -0.45166016
0.13879395 0.081726074 -0.45068359
0.14013672 0.081726074 -0.45068359
0.14123535 0.081542969 -0.44970703
0.14294434 0.081726074 -0.45068359
0.14575195 0.081726074 -0.45068359
0.14746094 0.08190918 -0.45166016
0.1484375 0.081726074 -0.45068359
0.14990234 0.081726074 -0.45068359
0.15124512 0.081726074 -0.45068359
0.15307617 0.08190918 -0.45166016
0.15515137 0.082275391 -0.45361328
0.15698242 0.073364258 -0.40454102
0.06161499 0.085327148 -0.47875977
0.062805176 0.084960938 -0.47680664
0.064147949 0.084777832 -0.47583008
0.065490723 0.084594727 -0.47485352
0.066650391 0.084289551 -0.47265625
0.067810059 0.08392334 -0.47070312
0.068847656 0.083374023 -0.46777344
0.070007324 0.083007812 -0.46557617
0.071105957 0.082641602 -0.46362305
0.07208252 0.082092285 -0.46069336
0.072875977 0.081420898 -0.45654297
0.073608398 0.080688477 -0.45263672
0.074707031 0.080322266 -0.45068359
0.075744629 0.079956055 -0.44873047
0.076782227 0.079589844 -0.4465332
0.07800293 0.079406738 -0.44555664
0.078979492 0.079101562 -0.44360352
0.080200195 0.078918457 -0.44262695
0.081359863 0.078735352 -0.44165039
0.082580566 0.078552246 -0.44067383
0.08392334 0.078552246 -0.44067383
0.085266113 0.078552246 -0.44067383
0.086669922 0.078552246 -0.44067383
0.088012695 0.078552246 -0.44067383
0.089599609 0.078735352 -0.44165039
0.091552734 0.079223633 -0.44458008
0.092956543 0.079223633 -0.44458008
0.094299316 0.079223633 -0.44458008
0.095458984 0.079101562 -0.44360352
0.097045898 0.079223633 -0.44458008
0.098632812 0.079406738 -0.44555664
0.10028076 0.079589844 -0.4465332
0.10162354 0.079589844 -0.4465332
0.10302734 0.079589844 -0.4465332
0.10418701 0.079406738 -0.44555664
0.10552979 0.079406738 -0.44555664
0.10693359 0.079406738 -0.44555664
0.10827637 0.079406738 -0.44555664
0.10968018 0.079406738 -0.44555664
0.11132812 0.079589844 -0.4465332
0.1126709 0.079589844 -0.4465332
0.11431885 0.079772949 -0.44750977
0.1159668 0.079956055 -0.44873047
0.11737061 0.079956055 -0.44873047
0.11901855 0.08013916 -0.44970703
0.1206665 0.080322266 -0.45068359
0.12207031 0.080322266 -0.45068359
0.12371826 0.080505371 -0.45166016
0.12512207 0.080505371 -0.45166016
0.12646484 0.080505371 -0.45166016
0.12792969 0.080505371 -0.45166016
0.12927246 0.080505371 -0.45166016
0.13061523 0.080505371 -0.45166016
0.13208008 0.080505371 -0.45166016
0.13342285 0.080505371 -0.45166016
0.1348877 0.080505371 -0.45166016
0.13623047 0.080505371 -0.45166016
0.1373291 0.080322266 -0.45068359
0.13879395 0.080322266 -0.45068359
0.13977051 0.08013916 -0.44970703
0.14147949 0.080322266 -0.45068359
0.14233398 0.079956055 -0.44873047
0.14367676 0.079956055 -0.44873047
0.14501953 0.079956055 -0.44873047
0.14672852 0.08013916 -0.44970703
0.1484375 0.080322266 -0.45068359
0.14990234 0.080322266 -0.45068359
0.15124512 0.080322266 -0.45068359
0.15307617 0.080505371 -0.45166016
