# .PCD v0.7 - Point Cloud Data file format
VERSION 0.7
FIELDS x y z
SIZE 4 4 4
TYPE F F F
COUNT 1 1 1
WIDTH 449
HEIGHT 1
VIEWPOINT 0 0 0 1 0 0 0
POINTS 449
DATA ascii
-0.043427277 0.026142336 -0.40157467
-0.035306465 0.028137848 -0.40300214
-0.025074482 0.028920591 -0.4029161
-0.015028537 0.027371164 -0.4019182
-0.0095287282 0.02458035 -0.40013689
-0.043420378 0.034921415 -0.40147331
-0.0350856 0.034900583 -0.40365055
-0.025040679 0.034893267 -0.40401506
-0.015652142 0.034882586 -0.40179238
-0.0095940074 0.034788139 -0.40012687
-0.041375894 0.040930741 -0.40098578
-0.034611855 0.042417224 -0.40202621
-0.025270669 0.042749647 -0.40224397
-0.017276928 0.04153033 -0.40126356
-0.050552521 0.009055946 -0.39067915
-0.049057525 0.0091771102 -0.39077151
-0.0070133368 0.00982357 -0.39025909
-0.052154575 0.016088346 -0.39256886
-0.046078678 0.016475296 -0.39347646
-0.036293224 0.018896425 -0.39103222
-0.024333997 0.01943144 -0.39045066
-0.013796735 0.018501956 -0.39133528
-0.0061244471 0.016558398 -0.39266577
-0.054212544 0.025124835 -0.39393497
-0.04558279 0.02355285 -0.39777038
-0.034854967 0.02370213 -0.39561358
-0.02507039 0.024218118 -0.39518088
-0.014964868 0.023531361 -0.39617905
-0.0050952686 0.024885582 -0.39503282
0.00050701154 0.026692363 -0.39087975
-0.052756533 0.034349229 -0.39401552
-0.047963295 0.03629826 -0.39805514
-0.011158333 0.035869267 -0.39932165
-0.0054968544 0.034900125 -0.39509928
9.1058864e-05 0.030109674 -0.391307
-0.050787002 0.040922418 -0.39106444
-0.044401258 0.043981917 -0.39432478
-0.035476338 0.04703689 -0.39620921
-0.0247688 0.047378253 -0.39671817
-0.014901963 0.04506021 -0.39500275
-0.0081907706 0.041909814 -0.39234653
-0.040514536 0.050463609 -0.39033768
-0.034094185 0.051297072 -0.39155039
-0.02547976 0.051401328 -0.39183441
-0.018545244 0.050604392 -0.39075932
-0.042562284 -0.0013261561 -0.38170376
-0.037472639 -0.0025594449 -0.38069472
-0.021164453 -0.0033693367 -0.38022619
-0.014979143 -0.0014323575 -0.38093844
-0.052635744 0.0075203171 -0.38383746
-0.045533989 0.004707261 -0.38457039
-0.035398472 0.0057282546 -0.38202059
-0.024947848 0.0066124271 -0.38156292
-0.014611345 0.0052080825 -0.38254061
-0.0063939658 0.0065673455 -0.38405654
-0.060183987 0.018115412 -0.38240659
-0.056755207 0.014718984 -0.3855072
-0.043310422 0.012609743 -0.38815641
-0.034830719 0.014286918 -0.38681349
-0.02507996 0.014788792 -0.38637027
-0.015348686 0.013940729 -0.3871105
-0.0034632166 0.013508203 -0.38682893
0.0017656577 0.016454013 -0.38327378
-0.0602189 0.022959836 -0.38211378
-0.05867517 0.025098914 -0.38528031
-0.026050912 0.020125961 -0.38979036
-0.00055289199 0.022980446 -0.3891058
0.0019774532 0.025038879 -0.38506374
-0.056254901 0.035124414 -0.38505867
-0.001645041 0.036465973 -0.3858563
0.00087585248 0.032554969 -0.38357168
-0.052494176 0.04375786 -0.3840113
-0.047200013 0.047479708 -0.38695934
-0.039832413 0.04966718 -0.38893625
-0.012078572 0.048439894 -0.38784212
-0.0059572575 0.04456218 -0.3846136
-0.050148763 0.05059091 -0.38060078
-0.043880489 0.053027894 -0.38365647
-0.03521293 0.055809539 -0.38517931
-0.024940034 0.056222089 -0.38526955
-0.015610739 0.053572085 -0.3843092
-0.0090097059 0.051011804 -0.38144973
-0.032877073 0.060474347 -0.38049155
-0.026887422 0.060393516 -0.38078925
-0.050385762 -0.00019821362 -0.37227115
-0.04423188 -0.0020801933 -0.37449098
-0.034793779 -0.0042510233 -0.37565336
-0.025069112 -0.0042984197 -0.3758629
-0.015307993 -0.0025719409 -0.37499437
-0.0089560067 -0.00064646493 -0.37184227
-0.05402578 0.0052402052 -0.37496576
-0.048167225 0.0009978523 -0.37717348
-0.033066049 0.0015319586 -0.3794935
-0.025142884 0.0019780232 -0.37931582
-0.013865401 0.00085426035 -0.37853244
-0.0043052603 0.004504812 -0.37512445
0.00049990416 0.0090873819 -0.37590677
-0.06016884 0.01851294 -0.37684602
-0.05839714 0.014747341 -0.37493092
-0.00042555903 0.011197315 -0.37276855
0.0017938536 0.015192356 -0.37512022
-0.060369547 0.025315782 -0.37458482
-0.059459347 0.024838338 -0.37523422
0.0026068771 0.024953436 -0.3751117
-0.060337648 0.032837994 -0.37263
-0.058730341 0.035416409 -0.37537032
-0.00050612364 0.038417313 -0.37792119
0.0015638047 0.034697134 -0.37475577
-0.055691011 0.045181088 -0.37511459
-0.049816996 0.049409688 -0.37900925
-0.002595521 0.045564536 -0.37544867
0.0005513542 0.041347872 -0.37235132
-0.052190326 0.053052619 -0.37351719
-0.046345148 0.056830849 -0.37629575
-0.037883114 0.059328008 -0.37920439
-0.02203756 0.059515025 -0.37937832
-0.013426721 0.05758407 -0.37678415
-0.0070808134 0.053636137 -0.37415364
-0.043200377 0.06221725 -0.37283856
-0.034933783 0.063997947 -0.37481043
-0.025145078 0.064144522 -0.37494943
-0.016347153 0.062365733 -0.37318799
-0.043549608 -0.0022308961 -0.3663013
-0.035106674 -0.0045492342 -0.36475337
-0.024999512 -0.0050316118 -0.3646923
-0.01553829 -0.0028280418 -0.36548415
-0.0089613814 -0.00083397306 -0.36843038
-0.052371431 0.006644066 -0.36589953
-0.047019009 0.002502731 -0.36352172
-0.039305694 0.00013422582 -0.36051229
-0.012178279 0.0015946843 -0.36210996
-0.0058569126 0.0053867302 -0.36541384
-0.056378759 0.014862405 -0.36489809
-0.0017241045 0.013710784 -0.36400026
0.00082002132 0.017162923 -0.36686495
-0.060382999 0.027130023 -0.36583352
-0.059107829 0.024127638 -0.36465466
-0.00033437295 0.021268746 -0.36137259
0.0018125435 0.024988409 -0.36513451
-0.06057616 0.034745973 -0.36452439
-0.059617646 0.035165165 -0.36592335
0.0021334731 0.034957707 -0.36507326
-0.06043382 0.042485688 -0.36253491
-0.058593713 0.045488492 -0.36547121
-0.00086875743 0.047486644 -0.36646703
0.0010391071 0.043711875 -0.36428505
-0.055032652 0.055089213 -0.36508209
-0.04929607 0.059428077 -0.3692337
-0.010326402 0.059558436 -0.36971563
-0.0040150224 0.05522364 -0.36520392
0.00023402066 0.050712083 -0.36112314
-0.051836163 0.062328402 -0.36299112
-0.045700382 0.065944962 -0.36562055
-0.035770964 0.068671137 -0.36836281
-0.02426617 0.068785764 -0.3684133
-0.014194288 0.066291317 -0.36575526
-0.0079400744 0.062461134 -0.36347362
-0.042359482 0.071492814 -0.36189777
-0.034773935 0.072777905 -0.36360067
-0.025309227 0.072774999 -0.36368918
-0.017524596 0.071540311 -0.36193815
-0.040615641 -0.00039370405 -0.35960925
-0.033958748 -0.0010804487 -0.35855836
-0.025559437 -0.0012770951 -0.35829905
-0.018712984 -0.00062507018 -0.35931182
-0.050775893 0.0091336118 -0.35860518
-0.044424724 0.0060284557 -0.3556008
-0.035388317 0.0030058785 -0.35388869
-0.024744546 0.0026831424 -0.35352066
-0.014994317 0.0051191291 -0.35506389
-0.0083448393 0.0081440704 -0.35770658
-0.053324282 0.015501973 -0.35538527
-0.04816924 0.011728623 -0.35210505
-0.01123448 0.011049768 -0.35131729
-0.0050690309 0.01503922 -0.35502234
0.00020810466 0.019755464 -0.35927001
-0.060248315 0.028809667 -0.35783374
-0.057657097 0.024688302 -0.35478944
-0.0013471382 0.023536857 -0.35370567
0.00083717628 0.026785592 -0.35655665
-0.0606624 0.035957478 -0.35546106
-0.059525091 0.033046555 -0.35415396
-0.00029873455 0.031098071 -0.35100853
0.0016513888 0.034966707 -0.35504895
-0.06077712 0.044506568 -0.35446715
-0.059587814 0.046695951 -0.35698679
-0.00022477457 0.048916925 -0.35800666
0.0015086606 0.044952352 -0.35497066
-0.060483526 0.052345395 -0.35239798
-0.058321923 0.055553805 -0.35548791
-0.0014457598 0.056180697 -0.35576227
0.00067130214 0.052390568 -0.35345075
-0.054356989 0.064895719 -0.35489279
-0.048861567 0.068796523 -0.35849985
-0.011208548 0.068937153 -0.35864326
-0.0055177524 0.064908922 -0.35490921
-0.051487628 0.071698539 -0.35215285
-0.045073166 0.074988388 -0.3549113
-0.03541372 0.077646129 -0.35696954
-0.024623796 0.07767611 -0.3568525
-0.014981634 0.074922785 -0.35483158
-0.0086808791 0.071500845 -0.35225344
-0.041807201 0.080748193 -0.35084754
-0.034671962 0.08169841 -0.35214064
-0.025598876 0.081662551 -0.35207251
-0.018792916 0.080741026 -0.35080722
-0.041698076 0.0090793325 -0.34860963
-0.034580827 0.0078338357 -0.34703588
-0.025320679 0.0076264949 -0.34685442
-0.01758245 0.0087260222 -0.34825537
-0.051484976 0.018277287 -0.34742892
-0.045333728 0.014629181 -0.3448523
-0.03563929 0.011779918 -0.34237561
-0.024479471 0.011612654 -0.34208915
-0.014318596 0.014014613 -0.34443095
-0.0079550566 0.017531965 -0.34682482
-0.054667745 0.02502493 -0.34501088
-0.04908146 0.020826163 -0.34119964
-0.010586862 0.020835597 -0.34069997
-0.0042980155 0.024801116 -0.34492305
0.00024509476 0.029197006 -0.34900236
-0.060507968 0.03763568 -0.34666592
-0.058616728 0.034186415 -0.3444595
-0.0010848513 0.033399709 -0.34356633
0.00080468372 0.036507376 -0.34635478
-0.060999364 0.045206022 -0.34516171
-0.059752867 0.04159062 -0.34321997
-0.00026474363 0.041355006 -0.34138167
0.0013679781 0.045048639 -0.34494165
-0.060930099 0.054607365 -0.3445785
-0.059467722 0.057566289 -0.34745356
-0.00050096045 0.058048874 -0.34671623
0.00096100959 0.054494966 -0.34454271
-0.060487472 0.062172759 -0.34206885
-0.057925466 0.065539539 -0.34551716
-0.0023319602 0.065431632 -0.34526879
0.00037231739 0.061563227 -0.34221554
-0.05370792 0.074543387 -0.34459227
-0.047928754 0.078326054 -0.34785309
-0.012200386 0.078181766 -0.34728754
-0.0067942669 0.074288458 -0.344475
-0.051029306 0.081145786 -0.34142348
-0.044488434 0.083876282 -0.34426743
-0.035277944 0.086576745 -0.34552366
-0.024804747 0.086462907 -0.34533384
-0.015789665 0.083435021 -0.34410766
-0.0093827834 0.080850005 -0.34104279
-0.040712681 0.090121537 -0.34031641
-0.03376013 0.090755545 -0.34081659
-0.027057916 0.090691768 -0.34080848
-0.042976215 0.018168403 -0.33755174
-0.034808118 0.016533094 -0.33562481
-0.025184052 0.016381314 -0.33555421
-0.016639227 0.01791751 -0.3373732
-0.052174482 0.027193455 -0.33633047
-0.046140675 0.023296697 -0.33391595
-0.036626965 0.02077771 -0.33097348
-0.023536613 0.020730708 -0.33082762
-0.013784969 0.023077896 -0.33356777
-0.0075086821 0.026740678 -0.33634219
-0.060224861 0.039290115 -0.33909246
-0.056186024 0.034812327 -0.3348195
-0.04957366 0.030200021 -0.33008203
-0.0035368472 0.034783941 -0.33481011
0.00027837115 0.03917443 -0.33841658
-0.060802788 0.046584044 -0.33576173
-0.059132092 0.0427619 -0.33391425
-0.00085204124 0.04338054 -0.33367378
0.00074672711 0.046343554 -0.33624807
-0.061496589 0.055071883 -0.33509082
-0.059986219 0.05125124 -0.33122575
-0.00015302886 0.05397195 -0.3326506
0.0009817786 0.055090379 -0.33499312
-0.061112713 0.064369522 -0.33434698
-0.05936645 0.067676365 -0.33753836
-0.00082657754 0.066530682 -0.3358542
0.00060187455 0.063191153 -0.33422765
-0.060494397 0.071651652 -0.33197743
-0.057387035 0.075495914 -0.33545658
-0.0036831736 0.075128637 -0.33519474
0.00045011519 0.070776299 -0.33019537
-0.053097147 0.084002696 -0.33416438
-0.046914473 0.087781362 -0.33703855
-0.039144684 0.089555249 -0.3392581
-0.021277426 0.089527719 -0.33932132
-0.013501076 0.087218933 -0.33636874
-0.0077209095 0.083094254 -0.33396867
-0.050535906 0.090557307 -0.33048642
-0.043897666 0.092526086 -0.33359313
-0.035043426 0.094486952 -0.33500746
-0.025027487 0.094152756 -0.33495972
-0.01681461 0.092171319 -0.33311015
-0.031838477 0.019732673 -0.3296192
-0.028057849 0.019755621 -0.3294656
-0.050338209 0.029408118 -0.32926151
-0.043868959 0.02719098 -0.32628706
-0.035101123 0.024729623 -0.32496488
-0.025014415 0.024677308 -0.32495949
-0.016060306 0.027158841 -0.3262715
-0.009478203 0.029326767 -0.32936138
-0.053080354 0.03606892 -0.32570818
-0.047186986 0.032144144 -0.32297519
-0.03975457 0.030213347 -0.32038435
-0.021106116 0.030429952 -0.32010126
-0.012952054 0.032337517 -0.32283512
-0.0070690201 0.036049161 -0.32590181
-0.060445834 0.048525535 -0.32757458
-0.057596952 0.044569783 -0.32469061
-0.0029085577 0.044786263 -0.32484186
0.0003130321 0.04853721 -0.32870543
-0.06122084 0.055347212 -0.32526925
-0.059482533 0.051745325 -0.32254785
-0.00072464248 0.0536809 -0.32364064
0.00060261966 0.056136452 -0.32621944
-0.061904304 0.06502378 -0.32495412
-0.00026737698 0.066252656 -0.32502761
0.00065849279 0.064621799 -0.32513195
-0.06112428 0.074133217 -0.32424119
-0.05921616 0.077634692 -0.32702354
-0.0014779757 0.075554289 -0.32533118
0.00039827055 0.071995348 -0.32354414
-0.06029281 0.080752172 -0.32197419
-0.056086633 0.085362017 -0.32505572
-0.010670805 0.08949849 -0.32880235
-0.0056668911 0.085186057 -0.32494208
-0.051393207 0.091079019 -0.32462382
-0.045222122 0.094785184 -0.32501748
-0.035116665 0.098049179 -0.32498232
-0.024955135 0.097751953 -0.32501379
-0.014846995 0.09387511 -0.32507369
-0.0092251226 0.090644367 -0.32368201
-0.040831279 0.029608781 -0.31959194
-0.033999585 0.029033396 -0.3187491
-0.026171593 0.029046508 -0.3187398
-0.019178683 0.02995736 -0.31972268
-0.051185351 0.038757302 -0.3182455
-0.044671834 0.03578512 -0.31545109
-0.035291709 0.033084486 -0.31404492
-0.024706602 0.033199914 -0.31410369
-0.015521863 0.036004007 -0.31567028
-0.009133758 0.038782135 -0.31858933
-0.054236732 0.045242526 -0.3152478
-0.048496168 0.041328724 -0.31189397
-0.011918728 0.04172764 -0.31228575
-0.0065492615 0.045553211 -0.31547165
-0.060761277 0.057582647 -0.31640372
-0.058465227 0.053661831 -0.314132
-0.002457086 0.054837294 -0.31479871
0.00031348495 0.058642324 -0.31824663
-0.061721839 0.065064467 -0.3149069
-0.059778646 0.060984723 -0.31107658
-0.00065594498 0.06444224 -0.31411693
0.00048790904 0.065833144 -0.31649232
-0.061408952 0.074381061 -0.31548494
-0.059253842 0.07802932 -0.31262138
-0.0011625132 0.075661853 -0.3146871
0.0004255785 0.072486751 -0.31610298
-0.060204964 0.080860458 -0.31846049
-0.056014229 0.085247695 -0.31495407
-0.049752846 0.089979209 -0.31001565
-0.010217573 0.089549169 -0.31256077
-0.0056440532 0.085117377 -0.31508866
-0.051339269 0.091331333 -0.31500125
-0.045159701 0.095719226 -0.31397355
-0.035223406 0.096986532 -0.31440675
-0.024757093 0.097234689 -0.31433579
-0.015359465 0.094712384 -0.31431174
-0.0094614588 0.090498567 -0.31646025
-0.041283391 0.10047106 -0.31270179
-0.034641076 0.10123328 -0.31410137
-0.025963144 0.10110221 -0.31339109
-0.019353185 0.10024889 -0.31127647
-0.041897539 0.038961228 -0.30864018
-0.034769092 0.037976898 -0.30733684
-0.025477873 0.038043763 -0.30749038
-0.018392611 0.039141599 -0.30894142
-0.051890176 0.047874317 -0.30697057
-0.045396708 0.044354226 -0.30462313
-0.035540361 0.041935511 -0.3025054
-0.024554498 0.042155087 -0.30270308
-0.014975027 0.04496434 -0.30503637
-0.0087495605 0.048259422 -0.30789766
-0.06025672 0.059438776 -0.30911064
-0.055426892 0.054944441 -0.30483302
-0.049477257 0.050725829 -0.30073205
-0.011308382 0.051364087 -0.30145627
-0.0061455462 0.055207293 -0.30518839
-0.060676325 0.065466195 -0.30840695
-0.057625633 0.064941749 -0.30366859
-0.0034465748 0.064985715 -0.30478406
0.0001207048 0.067430899 -0.30911595
-0.060475323 0.072111338 -0.30893832
-0.056940615 0.075406738 -0.30447781
-0.045067329 0.078983955 -0.30066922
-0.034839559 0.079212189 -0.30048659
-0.024207115 0.07935144 -0.30048925
-0.015986761 0.079564661 -0.30028787
-0.0044729882 0.07495939 -0.30500436
0.00016592443 0.070939004 -0.30953842
-0.054223098 0.084657669 -0.3049458
-0.0448846 0.084924422 -0.30478325
-0.035058238 0.08494015 -0.30445555
-0.025096199 0.084981777 -0.30441952
-0.014972275 0.085306026 -0.30400774
-0.0079140561 0.08472959 -0.3047072
-0.051801804 0.092116326 -0.30790895
-0.045674518 0.092221074 -0.30920732
-0.03508785 0.091149025 -0.30907321
-0.024930345 0.09127491 -0.30899072
-0.013784575 0.093293026 -0.30785862
-0.009585049 0.090825461 -0.30480167
-0.043239754 0.048091408 -0.29791462
-0.034895342 0.046561811 -0.2965641
-0.025341827 0.046780929 -0.29671443
-0.01760569 0.048433434 -0.29822257
-0.051811721 0.056701496 -0.29843348
-0.045128312 0.054910466 -0.29483682
-0.03540872 0.054164022 -0.29185328
-0.02467332 0.054379571 -0.29207063
-0.015062144 0.055029459 -0.29567587
-0.0088038575 0.05757343 -0.29885244
-0.052569054 0.065384328 -0.29695937
-0.045973893 0.065355085 -0.29220986
-0.035381038 0.067906745 -0.29147354
-0.024631863 0.067309879 -0.29117078
-0.014401317 0.064910144 -0.29312178
-0.0082346965 0.065241829 -0.29819894
-0.053142123 0.074544705 -0.29605955
-0.045021929 0.074252121 -0.29652712
-0.035033938 0.074599467 -0.29643691
-0.025078241 0.074674964 -0.29616585
-0.014139735 0.074567817 -0.29495391
-0.0086893141 0.075611405 -0.29692736
-0.055431407 0.081402771 -0.2988416
-0.045545071 0.080357008 -0.29999325
-0.035971515 0.080439456 -0.29987064
-0.027405519 0.080463141 -0.29985583
-0.014197909 0.080434315 -0.29963535
-0.0084257582 0.082383424 -0.29806459
-0.040652927 0.059821628 -0.28971261
-0.033805307 0.058540892 -0.28933471
-0.027136421 0.058697291 -0.28936523
-0.043750841 0.066191979 -0.28826204
-0.034967516 0.063726924 -0.28722557
-0.025075508 0.064360291 -0.28741592
-0.017857289 0.067589939 -0.28830281
-0.050323937 0.071029052 -0.28962728
-0.04917299 0.070466034 -0.28953838
-0.014261579 0.071264692 -0.28896883
