# .PCD v0.7 - Point Cloud Data file format
VERSION 0.7
FIELDS x y z
SIZE 4 4 4
TYPE F F F
COUNT 1 1 1
WIDTH 1289
HEIGHT 1
VIEWPOINT 0 0 0 1 0 0 0
POINTS 1289
DATA ascii
-0.037265267 -0.019288896 0.019428948
-0.036483668 -0.019541387 0.019642508
-0.035517983 -0.019679083 0.019670965
-0.028761508 -0.019425163 0.019534582
-0.027196916 -0.019488236 0.01965805
0.02255287 -0.019589854 0.019395383
0.023495 -0.01933695 0.019702895
0.028832728 -0.01959441 0.019563101
0.029412534 -0.019371178 0.019716159
0.030041691 -0.01903481 0.019837148
0.031370293 -0.019261615 0.019121164
0.032545205 -0.019284358 0.019588757
0.03359225 -0.019389316 0.019637628
0.034271173 -0.019553054 0.019358117
0.035396069 -0.019572116 0.019342849
-0.042196844 -0.018495979 0.019092808
-0.041197937 -0.018579574 0.019318968
-0.040312205 -0.018673455 0.019218264
-0.039568517 -0.018625386 0.019409904
-0.038655393 -0.01831059 0.019412834
-0.037624039 -0.018479625 0.01931615
-0.03646851 -0.018651938 0.019600771
-0.035647366 -0.018523609 0.019503336
-0.034567669 -0.018363068 0.019351985
-0.033774983 -0.018288581 0.019629406
-0.028532956 -0.018414568 0.019602507
-0.027769096 -0.01864849 0.019247446
-0.026726704 -0.018569589 0.019214399
0.023486907 -0.018507743 0.019538198
0.024308162 -0.018430455 0.019515704
0.025479846 -0.018252654 0.019624095
0.027450433 -0.018429656 0.019133715
0.028314186 -0.018313354 0.019562783
0.02949331 -0.01837885 0.019544693
0.030591561 -0.018608576 0.019533144
0.031370975 -0.018604431 0.01928037
0.032761749 -0.018646697 0.019538308
0.033265576 -0.018578051 0.019382045
0.034600496 -0.018925201 0.019117041
-0.040844947 -0.017652331 0.019325627
-0.039191861 -0.017759718 0.019672211
-0.036933839 -0.017012747 0.019103108
-0.035400279 -0.017299158 0.019524556
-0.03446164 -0.017631704 0.019516243
-0.033465113 -0.017711744 0.019569693
-0.032741942 -0.017861811 0.019810874
-0.030231832 -0.017043613 0.019806676
-0.028500903 -0.017574603 0.019507876
-0.027633488 -0.017861877 0.019203616
0.024795005 -0.017744396 0.01984971
0.025889555 -0.017571179 0.019478522
0.02644925 -0.01769653 0.019495016
0.027411861 -0.017511375 0.019155862
0.028352123 -0.017742181 0.019511247
0.029092021 -0.017792713 0.01924799
0.030188661 -0.017856283 0.019030023
-0.037442189 -0.016961655 0.019206231
-0.035880737 -0.016823264 0.019067567
-0.034348372 -0.016593143 0.019430645
-0.033669762 -0.016400315 0.019586178
-0.032668389 -0.016556868 0.019581199
-0.031558678 -0.016522549 0.019554978
-0.030563621 -0.016325351 0.019531846
-0.029421026 -0.016460875 0.01916327
-0.028559458 -0.016649183 0.019440688
-0.027921017 -0.016400363 0.019291706
-0.033075176 -0.015809145 0.019651001
-0.032503948 -0.015681332 0.019410972
-0.03147791 -0.015590035 0.019557618
-0.030533666 -0.015366657 0.019351652
-0.029327387 -0.01563376 0.019627333
-0.028394401 -0.015578656 0.019260388
-0.03313626 -0.014999229 0.019002784
-0.032343183 -0.014860473 0.019422274
-0.031475503 -0.014788621 0.019383315
0.00021359045 0.011701738 0.019170962
-0.0042876163 0.012873556 0.01995245
-0.0033452562 0.012534369 0.019083813
-0.0023943181 0.01285244 0.019437023
-0.0014877256 0.012570305 0.019393284
-0.00047797582 0.0124879 0.019214712
0.00041170223 0.012684486 0.019444779
0.0014407517 0.012559654 0.019352321
0.0020494005 0.012802023 0.019369965
0.0031296788 0.012602302 0.019856419
-0.0055094622 0.013835973 0.019498508
-0.004078385 0.013659585 0.01944916
-0.0034745454 0.013485401 0.019530315
-0.0027614837 0.013099382 0.019325573
0.0019492237 0.013031257 0.019143097
0.0025019213 0.013236526 0.01956737
0.0032928709 0.013488099 0.019738642
0.0042344416 0.013252759 0.019338544
-0.0062967343 0.014711251 0.019201122
-0.0054181498 0.014442929 0.019611886
-0.0046220305 0.014489529 0.019330967
0.0044919094 0.014312799 0.019388601
0.0055548362 0.014536847 0.019507635
-0.0070097782 0.015332814 0.019682761
-0.006104907 0.015116774 0.019041026
-0.0056222985 0.01552701 0.019561041
0.0055245152 0.015170645 0.01945496
0.0064137364 0.015815979 0.019407228
-0.007463594 0.016733749 0.019519243
-0.006117064 0.016431037 0.019511143
-0.0056115151 0.016136648 0.019470667
0.0059060282 0.016289843 0.019884655
0.0064219739 0.016389512 0.019497104
0.0074547725 0.016497932 0.019849312
-0.0074577108 0.01756308 0.019623615
-0.0066191568 0.017541148 0.019231746
0.0065326914 0.01752237 0.019404942
0.0073994668 0.017987614 0.019293046
0.0081474278 0.017648233 0.019246893
-0.007348408 0.018429622 0.019604396
-0.0066468506 0.018089825 0.019160906
-0.0058792545 0.018444711 0.019446561
0.0066559538 0.018675679 0.019564867
0.0074132252 0.018230502 0.019623525
-0.0070387525 0.019116705 0.019559478
-0.0064275782 0.019649373 0.019641126
-0.005765954 0.019593641 0.019269306
0.005894579 0.01920772 0.01905933
0.0064664544 0.019398617 0.019514242
0.0078526223 0.019294064 0.019897591
-0.0065027624 0.020467639 0.019859405
-0.005400951 0.020685593 0.01946507
-0.0049923556 0.020818952 0.019076653
0.0056113675 0.020693939 0.01936112
0.0063688345 0.02035819 0.019494569
0.0070869452 0.020077294 0.019606067
-0.005849774 0.021193702 0.019509099
-0.0049383212 0.021542879 0.019954316
-0.0036876462 0.02186276 0.019601813
0.0045681251 0.021656035 0.019560449
0.0054183067 0.021455407 0.01947223
-0.0052067372 0.022070501 0.019529413
-0.0044479012 0.022223257 0.019462481
-0.0034484391 0.022588443 0.019506428
-0.0021047529 0.022890402 0.019855211
-0.0015924412 0.022959217 0.019621646
0.0018206593 0.022824081 0.019224258
0.0023799974 0.02274926 0.019438243
0.0035191961 0.022528008 0.019578965
0.0044728252 0.022159707 0.01931577
-0.0023782412 0.023046218 0.019340979
-0.0013230377 0.023221612 0.019582419
-0.00064233213 0.023275027 0.019883789
0.00036496314 0.023326591 0.019478647
0.0013154915 0.023242148 0.01949076
0.00211178 0.023211669 0.019675823
-0.014462139 0.033546194 0.019312838
-0.012903002 0.033917554 0.019590616
-0.011224888 0.033891667 0.019897645
-0.015289174 0.0345449 0.019333726
-0.014500399 0.034438744 0.019383898
-0.013470624 0.03438779 0.019339755
-0.012449103 0.034572441 0.019425554
-0.011346169 0.034570619 0.019379986
-0.010493867 0.0347257 0.019404406
-0.0090228897 0.034914907 0.019331999
-0.014352393 0.035447817 0.019487549
-0.013309546 0.035615388 0.019660108
-0.012531475 0.035630453 0.019639339
-0.011648743 0.035896182 0.019676216
-0.0096533066 0.035102747 0.019669972
-0.0085236318 0.035226081 0.019606195
-0.0073984228 0.035369329 0.019429535
-0.0065424214 0.035495616 0.019427583
-0.0055886097 0.035565667 0.019522611
-0.0047266786 0.035675898 0.019665351
-0.0035283335 0.035729796 0.019530503
-0.002457371 0.035897747 0.019585121
-0.0015617165 0.035869457 0.019475888
-0.00089693069 0.035701707 0.01985372
0.00079307955 0.035874408 0.019522946
0.0014661243 0.035947517 0.019898063
0.0022687446 0.035911728 0.019350598
0.0037557585 0.035830319 0.019487048
0.0047406983 0.035932232 0.019725662
0.0058566313 0.035642855 0.019022821
0.0064083268 0.035942446 0.019470839
0.0073519535 0.035529509 0.019501178
0.0083749909 0.035777114 0.019300327
0.0093910284 0.035760552 0.01944045
0.010396782 0.035713837 0.01955905
0.011680823 0.035770591 0.01927802
0.012394607 0.035465997 0.019422671
-0.013028531 0.036307797 0.019061711
-0.012527335 0.036305483 0.019529024
-0.011427947 0.036545772 0.019256501
-0.010377723 0.036744822 0.019753246
-0.0099444315 0.036852673 0.019942278
-0.0015306254 0.036015633 0.01984451
-0.00059504993 0.03604348 0.019389354
0.00046635634 0.036075562 0.019629743
0.0014224388 0.036149394 0.019337192
0.0023363694 0.03615113 0.019634956
0.0034410935 0.036186587 0.019714102
0.0046322742 0.036114428 0.019632004
0.005593772 0.0361479 0.019557834
0.0063561802 0.036039565 0.019556165
0.0071247611 0.036109023 0.019625004
0.0088150725 0.036398135 0.019691031
0.0097648669 0.036541354 0.019680941
0.01035056 0.03659644 0.019670427
0.011506689 0.036236618 0.019578272
0.01221719 0.036246996 0.019482067
-0.011150424 0.037312504 0.019392332
-0.010418504 0.037550654 0.019316711
-0.0096351039 0.037421133 0.019472113
-0.0085755028 0.037540615 0.019676235
-0.0077505666 0.037832409 0.019220486
0.0056405952 0.037728608 0.019918311
0.0065981452 0.03782611 0.01966721
0.0077173426 0.037723798 0.019592535
0.0084214741 0.037608016 0.01949925
0.0094418963 0.037601523 0.019381993
0.010744736 0.037214603 0.019506447
-0.0092389118 0.038242929 0.019334074
-0.0088227522 0.038348652 0.019255443
-0.0076580313 0.038539149 0.019660208
-0.0065936204 0.038591031 0.019449072
-0.0056423522 0.038393352 0.019526033
-0.004488897 0.038747672 0.019649021
-0.0034195045 0.038848329 0.019195894
-0.0022178665 0.038797963 0.019906258
-0.0013281271 0.038884576 0.019575728
-0.00069168565 0.038803287 0.01989031
0.00034703678 0.03883265 0.019215887
0.0018201191 0.038780808 0.019517815
0.0025693374 0.038718969 0.019769538
0.0036117279 0.038770583 0.019345906
0.0046551805 0.038544983 0.01948953
0.0054020872 0.038570128 0.019332899
0.0064467406 0.038485203 0.019473154
0.0073570609 0.038175926 0.019407094
0.0084559564 0.038262025 0.019921824
-0.0071846433 0.039168902 0.019325633
-0.00689968 0.039199397 0.019040465
-0.0052339612 0.039417952 0.019419549
-0.0046423241 0.039240014 0.019407844
-0.003434188 0.03949349 0.019716812
-0.0024592038 0.03938245 0.019478796
-0.0016167706 0.03944096 0.019629568
-0.00037645176 0.039364755 0.01962937
0.00034785885 0.039359566 0.019568503
0.0015108185 0.039299868 0.019605305
0.0024401306 0.039383639 0.019495318
0.003720216 0.039344978 0.019248946
0.0044948016 0.039152984 0.019288763
-0.00019723177 0.040109228 0.019028926
0.028965892 -0.032049857 0.020314164
0.02960369 -0.03237344 0.020587724
0.03055588 -0.032305002 0.020225873
0.031657696 -0.032127827 0.020471346
0.032272793 -0.03236077 0.020428274
0.033720315 -0.032212362 0.020025741
0.034173086 -0.032300048 0.020225346
0.026790515 -0.031087946 0.020223152
0.027778696 -0.031324442 0.020857172
0.028491169 -0.031627614 0.020416874
0.029445779 -0.031338293 0.020528555
0.030507751 -0.031613972 0.020723091
0.031539377 -0.031479362 0.020703059
0.032544609 -0.031677179 0.020697923
0.03342516 -0.031494312 0.020497594
0.03436435 -0.031424262 0.020400407
0.035517856 -0.031413481 0.020218905
0.026563462 -0.030332735 0.02029697
0.027684705 -0.030631766 0.020607606
0.028658327 -0.030691793 0.020694317
0.029550634 -0.030722125 0.020816039
0.033515479 -0.030808119 0.020520255
0.034573436 -0.030610472 0.020551823
0.03535863 -0.030565852 0.020579115
0.036135573 -0.030228086 0.020322295
0.025308054 -0.029640751 0.020205643
0.026481315 -0.029541379 0.020434162
0.03471766 -0.029799992 0.020789487
0.035357751 -0.029520422 0.020579502
0.036310926 -0.029548552 0.020595621
0.037362404 -0.029498151 0.020398948
0.023830799 -0.028098227 0.020404806
0.024487171 -0.028575124 0.020694502
0.025142699 -0.028387863 0.020375343
0.026042297 -0.028814089 0.02072202
0.034748826 -0.028004657 0.020770628
0.035256896 -0.028406322 0.020629788
0.036523264 -0.028592231 0.020349281
0.037041977 -0.028071221 0.020382375
0.023560962 -0.027349116 0.020810667
0.025399992 -0.027739808 0.020454254
0.035789069 -0.027091134 0.020598011
0.036424782 -0.02745056 0.020461114
0.037241369 -0.027280176 0.020309456
0.022565024 -0.026052527 0.020549299
0.023759326 -0.026634226 0.020683432
0.02427843 -0.026313338 0.020233352
0.025754552 -0.026809501 0.020701647
0.035613224 -0.026631609 0.020703554
0.036473714 -0.026344869 0.020525578
0.037189934 -0.026371948 0.020349467
-0.037455808 -0.025183916 0.020186201
-0.036540601 -0.025518544 0.020103898
-0.033481445 -0.025172088 0.020529352
0.023839079 -0.025599994 0.020384476
0.024657955 -0.025633734 0.020500626
0.025342785 -0.025462281 0.020034913
0.036645863 -0.025596131 0.020585256
0.037280876 -0.025534986 0.020369619
-0.039538875 -0.024257299 0.02069092
-0.038466036 -0.024500143 0.02054652
-0.037658662 -0.024269518 0.02061614
-0.036558069 -0.024312692 0.020374812
-0.035522193 -0.024250569 0.020439334
-0.034570955 -0.024417378 0.020584881
-0.03363784 -0.024647137 0.020357657
-0.032501787 -0.024530662 0.020534001
-0.031566806 -0.024381751 0.020800089
-0.030470286 -0.024491895 0.020640381
0.021746719 -0.024227772 0.020246133
0.022640074 -0.024318159 0.020359162
0.023671411 -0.024469553 0.020616822
0.036455426 -0.024346089 0.020557588
0.037376959 -0.0244445 0.020375084
0.03800071 -0.024563603 0.020101212
-0.041103225 -0.023334332 0.020564556
-0.040288888 -0.023618091 0.020542653
-0.039466843 -0.023507632 0.020362537
-0.038574383 -0.023549803 0.020468095
-0.037413668 -0.023544615 0.020592147
-0.03677506 -0.023625473 0.020559829
-0.035586298 -0.023852043 0.02069724
-0.03494041 -0.023445604 0.020825798
-0.033609577 -0.023612464 0.020749666
-0.031436004 -0.023869731 0.020623837
-0.030945692 -0.023330342 0.020083223
-0.0289167 -0.023342714 0.020875901
0.021564858 -0.023898592 0.020470995
0.022180658 -0.023552882 0.020127537
0.035756923 -0.023696505 0.020713571
0.036631692 -0.023526175 0.020520845
0.037266862 -0.023585651 0.020492222
-0.04132111 -0.022424068 0.020369347
-0.040367626 -0.022430159 0.020606138
-0.039713316 -0.02250517 0.020581726
-0.038370706 -0.022450771 0.02049971
-0.037716422 -0.022739815 0.020940999
-0.036407828 -0.022477269 0.020729229
-0.03529194 -0.022831488 0.020942289
-0.034633365 -0.022844935 0.020764081
-0.030526722 -0.022502379 0.02061837
-0.029406378 -0.022646882 0.02063575
-0.02863533 -0.022145588 0.020580351
0.021699371 -0.022680685 0.020595923
0.022362642 -0.022494458 0.020703254
0.023043128 -0.02275935 0.020961918
0.035526045 -0.022368876 0.020630226
0.03657357 -0.022355005 0.020365745
0.037354298 -0.022440867 0.02041338
-0.041549567 -0.021524521 0.020398116
-0.040629253 -0.021565966 0.020680735
-0.039701488 -0.021463796 0.020541476
-0.038782753 -0.021137495 0.020317238
-0.037699215 -0.021644508 0.020792831
-0.036652792 -0.021332532 0.02060817
-0.035916824 -0.021455318 0.020843014
-0.034780517 -0.021045245 0.02071679
-0.033895407 -0.021483239 0.020794064
-0.02923087 -0.021115303 0.020288957
-0.028459527 -0.021249682 0.020446431
0.021804802 -0.021642456 0.020276329
0.022444393 -0.02162228 0.020859379
0.023375809 -0.021637198 0.020611033
0.031140504 -0.021112669 0.020360624
0.034747001 -0.021063505 0.020747442
0.035651691 -0.021620898 0.02058389
0.036870118 -0.021818539 0.020496037
-0.04250126 -0.020413168 0.020044368
-0.041398652 -0.020589966 0.020217491
-0.04044316 -0.0205019 0.02059013
-0.039498862 -0.020555008 0.020537028
-0.038425926 -0.020564338 0.020546895
-0.037479334 -0.020518981 0.020493437
-0.036577929 -0.020459907 0.020452281
-0.035471447 -0.020982862 0.020040153
-0.034444701 -0.020556139 0.020792613
-0.033877768 -0.020102927 0.020663522
-0.029670238 -0.020591725 0.020335322
-0.028621675 -0.020931818 0.020586226
0.021754541 -0.020410972 0.020665076
0.022495067 -0.020280518 0.020550182
0.023320848 -0.020362206 0.020437414
0.029737942 -0.020436505 0.020639939
0.030477103 -0.020385947 0.020753259
0.031657182 -0.020228237 0.020538129
0.032523274 -0.020373415 0.020151552
0.033589281 -0.0203836 0.020479059
0.034441419 -0.020482505 0.02051511
0.035566974 -0.02058398 0.020511953
0.036520276 -0.020923724 0.020224061
-0.041147057 -0.019206008 0.020066468
-0.040548809 -0.019667825 0.020274756
-0.039437603 -0.019366095 0.02025857
-0.038819835 -0.019282296 0.020530151
-0.037321042 -0.019396834 0.020319307
-0.036524281 -0.019416453 0.020378226
-0.035421945 -0.019524913 0.020271342
-0.034485608 -0.019416323 0.020634266
-0.03378883 -0.019475391 0.020946853
-0.032903291 -0.019421957 0.02075387
-0.029427543 -0.019459777 0.02073356
-0.028862914 -0.019527173 0.020548666
-0.0279659 -0.019638315 0.020130858
0.022752523 -0.019352188 0.020446882
0.02330929 -0.019461364 0.020832829
0.024381116 -0.019586641 0.020493587
0.025639173 -0.019143037 0.020480759
0.027575826 -0.019485326 0.02055263
0.028539866 -0.019360011 0.020425064
0.029803488 -0.019339556 0.020530861
0.030430846 -0.01935873 0.020707177
0.031430405 -0.019162612 0.020410353
0.032402039 -0.019406419 0.020510282
0.033451632 -0.019437477 0.020272704
0.034503121 -0.01961947 0.020656921
0.035286374 -0.019846298 0.020119157
-0.041013952 -0.018446269 0.020154685
-0.03856815 -0.018776452 0.020289669
-0.036128767 -0.018896837 0.020213034
-0.035405427 -0.01874724 0.020213336
-0.034535974 -0.018383341 0.020539379
-0.033531826 -0.018464316 0.020537959
-0.032960501 -0.018778916 0.020249184
-0.03092467 -0.018380864 0.020743642
-0.029270869 -0.018483194 0.020574953
-0.028445693 -0.018599851 0.02033991
-0.027723249 -0.018701309 0.020608261
0.023632871 -0.018683761 0.02057465
0.02440691 -0.018492864 0.02034493
0.025427157 -0.018249981 0.020607416
0.026366627 -0.018242514 0.020526754
0.02729797 -0.018392546 0.020446062
0.028392663 -0.018599015 0.020463815
0.02947597 -0.018726259 0.020322934
0.03063567 -0.018662294 0.020442231
0.031469595 -0.018782629 0.020328125
0.0322752 -0.018716887 0.020325664
-0.034508962 -0.017640445 0.020423152
-0.033458319 -0.017653288 0.020433055
-0.032566383 -0.017344058 0.020687934
-0.031698614 -0.017726777 0.02075142
-0.030267764 -0.017836774 0.020769157
-0.029456953 -0.017546728 0.020492693
-0.028348375 -0.01750141 0.020545531
-0.027619693 -0.01747464 0.020069739
0.025538161 -0.017840927 0.020388436
0.026666064 -0.017689906 0.020344289
0.027476266 -0.017774129 0.020519745
-0.034433961 -0.016893618 0.020056764
-0.033439171 -0.016816411 0.020580959
-0.032267906 -0.016515691 0.020389874
-0.031626318 -0.01642417 0.020271583
-0.030425042 -0.016565589 0.020404024
-0.029508065 -0.016525514 0.020137709
-0.02877409 -0.016483804 0.02040544
-0.033050019 -0.015755013 0.020281753
-0.032532528 -0.015496086 0.020474207
-0.031210268 -0.015876189 0.020110233
-0.030637141 -0.015985411 0.020942181
-0.02974447 -0.015514142 0.020618591
-0.0042579151 0.012680747 0.020953868
-0.0035633307 0.012882955 0.020558577
-0.0023844093 0.01260327 0.020706639
-0.0015340552 0.012386994 0.020650292
-0.00061200449 0.012583992 0.020563062
0.00059492997 0.012649215 0.020515092
0.0014444473 0.012458167 0.020530656
0.0036563831 0.012581917 0.020754959
-0.005651826 0.013793631 0.020758571
-0.0046284539 0.013437314 0.02010061
-0.0035958197 0.013368504 0.02048509
-0.0026869802 0.013152642 0.020204175
0.0012916542 0.013021764 0.02057622
0.002558378 0.013232235 0.020581348
0.0033605963 0.013358208 0.020439813
0.0041879574 0.013507128 0.020195188
0.0054392247 0.013385624 0.02080787
-0.0053901454 0.014277617 0.020478826
-0.0044830861 0.014289428 0.020842778
0.0038499758 0.014220946 0.020088477
0.004558675 0.01432733 0.020490777
0.0054380111 0.014687378 0.020580143
-0.0074610487 0.015817596 0.020642478
-0.0065580122 0.015723137 0.020591399
-0.0058541838 0.015259958 0.02059819
0.005573723 0.015268332 0.020803012
0.0065060533 0.015633257 0.020511659
-0.0070413155 0.016787607 0.02035328
-0.0066075721 0.01668564 0.020292489
0.0065457625 0.016326472 0.020520844
0.0073552327 0.01650613 0.020584363
-0.0075312648 0.017614596 0.020517513
-0.0065127155 0.01741378 0.020637628
0.0066432459 0.01773214 0.020242296
0.0072708651 0.017520474 0.020676795
-0.007354496 0.018522669 0.020377003
-0.006754085 0.018498845 0.020485815
0.0065962262 0.018590655 0.020599859
0.0076234024 0.018469997 0.020481886
0.0080653261 0.018592959 0.020638738
-0.0064885723 0.019445701 0.020656902
-0.0057779453 0.019290153 0.020599358
0.0059511289 0.019687364 0.020690855
0.0064438726 0.019352429 0.020463498
0.0071251043 0.019597622 0.020678651
-0.0071098413 0.020222418 0.020961145
-0.0064031468 0.020193128 0.020510534
-0.0053232117 0.020685758 0.020322049
0.0054830513 0.020541068 0.020610824
0.0064537837 0.020300379 0.020451903
0.0070165955 0.020686191 0.02064579
-0.0054652649 0.021630598 0.020667864
-0.0046351836 0.021612437 0.020594576
0.0043126438 0.021646751 0.020406388
0.0053504137 0.021591019 0.020652164
0.0067450507 0.021097327 0.020880813
0.0070223878 0.021018321 0.020896869
-0.0050677801 0.022050574 0.020864915
-0.0043300008 0.022036128 0.020784602
-0.0035471919 0.022537567 0.02047731
-0.0022889455 0.022958566 0.020825986
-0.00068727648 0.022986626 0.020831762
0.0019071168 0.022964479 0.020820722
0.0027799488 0.022479627 0.020605547
0.0037225971 0.02249803 0.020403754
0.004424891 0.022531878 0.020578872
0.005592423 0.022138808 0.02067887
-0.0033108154 0.023090573 0.020878024
-0.0023465606 0.023157807 0.02050931
-0.0018252451 0.023291226 0.020868227
-0.00060201419 0.02329983 0.02060714
0.0005353184 0.023450855 0.020542642
0.0013893194 0.023188075 0.020505294
0.0026143284 0.023295423 0.020414451
0.0033046524 0.023242641 0.020794876
-0.014278224 0.033786435 0.020888824
-0.013559622 0.03358046 0.020202192
-0.011543212 0.03364462 0.020451568
-0.014427777 0.034512796 0.020424446
-0.013337213 0.034677651 0.020451004
-0.012639706 0.034410585 0.020502826
-0.01161811 0.034746934 0.020436302
-0.010602426 0.034675214 0.020577237
-0.0096929744 0.034532972 0.020279948
-0.0085260281 0.034573149 0.020400122
0.0083004571 0.034750581 0.020489777
0.010750081 0.034862041 0.020498082
-0.013405336 0.035409849 0.020172756
-0.012798834 0.035423946 0.020462694
-0.01160415 0.035600208 0.020670544
-0.010170296 0.03502652 0.020479329
-0.0095877685 0.035124443 0.020566165
-0.0084277028 0.035224378 0.020568738
-0.0074979849 0.035381947 0.020476101
-0.0063534784 0.035362545 0.02041471
-0.0056007053 0.035497561 0.020531969
-0.0047182911 0.035709336 0.02029076
-0.003356142 0.035698526 0.020591117
-0.0023570252 0.035856873 0.020363852
-0.0014006381 0.03588409 0.020422036
-0.00043640472 0.035862677 0.020143334
0.00052097067 0.03579656 0.020151207
0.0018618032 0.035920337 0.020433355
0.0035568262 0.035860654 0.020362539
0.0046235397 0.035970084 0.020890046
0.0054524564 0.03571729 0.020618772
0.0068185343 0.035997465 0.020039111
0.0075538554 0.035740338 0.02046657
0.0085548777 0.035872307 0.020460648
0.0095045818 0.035671532 0.02040517
0.010372329 0.035665389 0.020293705
0.011189518 0.035198271 0.02066255
-0.013108833 0.036066134 0.02024865
-0.012420743 0.036219373 0.020293698
-0.011489098 0.036478139 0.020690883
-0.010390582 0.036467519 0.020494482
-0.009549832 0.036738761 0.020460885
-0.0084935892 0.036822118 0.020772476
-0.0014061086 0.036076229 0.02079552
-0.00049836113 0.036059394 0.020356985
0.00075020397 0.03619346 0.020222668
0.0012851084 0.036146436 0.020616418
0.0025310649 0.036153324 0.020606747
0.0033494928 0.036152959 0.020702776
0.0044419332 0.036200855 0.020319218
0.0055024317 0.036105484 0.020378731
0.0064416267 0.036155988 0.02072263
0.0075951861 0.036486514 0.020615142
0.0085977428 0.03657382 0.02060077
0.0098359222 0.036360011 0.020382686
0.010360068 0.036526188 0.020478891
0.011136711 0.03690847 0.020274917
-0.011438461 0.037084773 0.020162741
-0.010262993 0.03743289 0.020403571
-0.009508688 0.037366789 0.020402079
-0.0083856098 0.037485942 0.020736901
-0.0074418671 0.037901852 0.02035654
-0.0065172613 0.037643492 0.020682005
-0.0054561533 0.037952051 0.020961102
-0.0046638898 0.037871517 0.020524522
0.0034805478 0.03782269 0.020782506
0.0045208316 0.037886828 0.020828586
0.0053141415 0.03777213 0.020452837
0.0066106319 0.03763745 0.02060388
0.0075496137 0.037504386 0.02054961
0.008541598 0.037595857 0.020517457
0.0099466937 0.037052155 0.020341516
-0.0082752053 0.038123243 0.020138031
-0.0072866138 0.038252115 0.020578252
-0.006420678 0.038333498 0.020774381
-0.005293217 0.03857173 0.020709924
-0.0045207716 0.038546894 0.02045624
-0.0033909017 0.038483478 0.020662777
-0.0024947573 0.038738631 0.020573724
-0.0013478444 0.038623512 0.020552868
-0.0005586776 0.038681358 0.020425331
0.0005095193 0.038499042 0.020643724
0.0016196325 0.038588464 0.020510504
0.0024128172 0.038576562 0.020663604
0.0034678157 0.038426153 0.020671863
0.0043619494 0.038371149 0.020444583
0.0053640977 0.038452394 0.020451134
0.0064187264 0.038274441 0.020475019
-0.0051786257 0.039136901 0.020373026
-0.0034287272 0.039130818 0.020178063
-0.0026265774 0.039225817 0.020412523
-0.0014662944 0.039319694 0.020268412
-0.00083999644 0.03923374 0.020548454
0.00090984593 0.039172471 0.020710018
0.0019663349 0.039169978 0.020323832
0.0024002697 0.039144542 0.020725073
0.0032867361 0.039213721 0.020514207
0.028724946 -0.03251487 0.021137943
0.029494705 -0.032116216 0.021153113
0.030572727 -0.032558396 0.021464018
0.031199599 -0.032208372 0.021298358
0.032496139 -0.032544374 0.021135012
0.026977049 -0.031389236 0.021249842
0.027260477 -0.031225659 0.021075133
0.028512111 -0.031423654 0.021412387
0.02946627 -0.031444166 0.021505727
0.030631725 -0.031391807 0.021637723
0.03154416 -0.031573679 0.021693354
0.032404993 -0.031429738 0.021622088
0.033466436 -0.03153972 0.021549093
0.034582138 -0.031258419 0.021358849
0.02632061 -0.030128466 0.021091726
0.027499679 -0.030537833 0.021432573
0.028305454 -0.030473815 0.021471532
0.029263739 -0.030706391 0.021543752
0.03002427 -0.030456122 0.021780364
0.03163458 -0.030371845 0.021688616
0.032673288 -0.03033429 0.021446031
0.03367826 -0.030407136 0.021552851
0.034550771 -0.030360529 0.021468176
0.035385869 -0.030508848 0.021305835
0.02484188 -0.02920717 0.021485556
0.025600053 -0.029431006 0.021624302
0.026487274 -0.029752383 0.02152119
0.027320316 -0.029660022 0.021309718
0.028675118 -0.029505718 0.021839948
0.032578491 -0.029299922 0.021967815
0.033616193 -0.029508388 0.021601185
0.034620784 -0.029085264 0.021447495
0.035326444 -0.029425042 0.021306193
0.036406912 -0.029100476 0.021276979
0.025262572 -0.028693514 0.021277023
0.026202369 -0.028878313 0.02125871
0.033853378 -0.028069977 0.021800756
0.034710065 -0.028127665 0.021483902
0.035451785 -0.028567795 0.021596275
0.023404742 -0.027592132 0.021427762
0.024490654 -0.027392039 0.021716297
0.025214277 -0.027357973 0.021217033
0.034614675 -0.027397919 0.021584352
0.035642225 -0.027341358 0.021661809
0.036714181 -0.027521309 0.021035299
0.037023377 -0.027296215 0.021054778
0.022722306 -0.026975926 0.021660497
0.023397014 -0.026385967 0.021562526
0.024499476 -0.026436418 0.021455798
0.025548298 -0.026308972 0.021045646
0.035692822 -0.026601924 0.021307992
0.03640176 -0.026486766 0.021721462
0.037151158 -0.026493592 0.021147672
-0.032645028 -0.025267363 0.021858428
0.022532605 -0.025345078 0.021199472
0.023152404 -0.025906965 0.021350201
0.024370471 -0.025797233 0.021147052
0.03590041 -0.025721038 0.021462992
0.036839686 -0.025397759 0.021217454
0.037243135 -0.025468547 0.021290693
-0.03904457 -0.024248708 0.021056036
-0.03848334 -0.02417282 0.02177988
-0.037450477 -0.024266705 0.021162383
-0.03662283 -0.024264093 0.021475451
-0.035519522 -0.024435978 0.021276439
-0.03442914 -0.024576813 0.021884928
-0.033552706 -0.024438567 0.021238446
-0.032761432 -0.024206039 0.021556292
-0.031347889 -0.024307331 0.021366119
-0.030675089 -0.024356022 0.02191392
0.021969358 -0.024512291 0.021933489
0.022543157 -0.024676699 0.021395832
0.035639532 -0.024762861 0.021407612
0.036369331 -0.024527172 0.021432951
0.037425835 -0.024567656 0.021249525
-0.039355364 -0.023156857 0.02116083
-0.038508724 -0.02331448 0.021237105
-0.037248436 -0.02352215 0.021622898
-0.036668804 -0.023607299 0.021586554
-0.035392005 -0.023402391 0.021599835
-0.03447143 -0.023614559 0.021755384
-0.033305265 -0.023617014 0.021520842
-0.032289963 -0.023814561 0.021502765
-0.031384468 -0.023248274 0.021600781
-0.030919932 -0.023455031 0.021537397
-0.029455576 -0.023642469 0.021340612
0.021540623 -0.02342717 0.02145963
0.022186888 -0.023758624 0.021645742
0.023119595 -0.023622379 0.021570481
0.02880631 -0.023231279 0.021722401
0.029849371 -0.023004588 0.021536743
0.030464604 -0.023542099 0.021615561
0.031008655 -0.02314714 0.021856427
0.035537444 -0.023222322 0.021602025
0.036425959 -0.023142753 0.021516524
0.037250169 -0.023659553 0.021195915
-0.04068999 -0.022703422 0.021363709
-0.039540201 -0.022492778 0.021532083
-0.038408764 -0.022643171 0.021298591
-0.03785225 -0.022656854 0.021511029
-0.036383931 -0.022618677 0.0215018
-0.035504669 -0.022739926 0.021378972
-0.034510538 -0.022585277 0.02148409
-0.033395376 -0.0224698 0.021573367
-0.032439563 -0.022712743 0.021689204
-0.031250998 -0.022715896 0.021363264
-0.030626604 -0.022462629 0.021309176
-0.029596495 -0.022804296 0.02129788
0.021282779 -0.022171378 0.021317061
0.022405934 -0.022594577 0.021805957
0.027744502 -0.022419952 0.021885179
0.02821959 -0.022168202 0.021810012
0.029628834 -0.022287263 0.021422708
0.030101366 -0.022174943 0.021767136
0.03190504 -0.022250019 0.021635871
0.0335785 -0.022197148 0.021586852
0.035697509 -0.022455353 0.021251893
0.036377665 -0.022438547 0.021704363
0.037072137 -0.022407182 0.021623861
-0.040968649 -0.021174192 0.021037595
-0.039506949 -0.021513127 0.02137389
-0.038598783 -0.021396557 0.021341396
-0.037561536 -0.021628771 0.021409828
-0.036710072 -0.021555329 0.021735739
-0.035705063 -0.021554554 0.021452654
-0.034398146 -0.021398952 0.021524735
-0.033281386 -0.021645447 0.021905625
-0.031429894 -0.021761857 0.02193559
-0.030323997 -0.021797478 0.021475675
-0.029531628 -0.021584213 0.021429535
-0.028287083 -0.021509703 0.021712303
-0.027699832 -0.021079017 0.021040751
0.021702426 -0.021584217 0.021707458
0.022371531 -0.021576764 0.021521175
0.023105787 -0.021776434 0.021050859
0.02851356 -0.021393007 0.021521429
0.029232085 -0.021415923 0.021488205
0.030694954 -0.021024924 0.021070048
0.03161002 -0.021434549 0.021648731
0.032633901 -0.021216284 0.021502631
0.033529311 -0.021401964 0.021637864
0.03442955 -0.021492168 0.021586308
0.035505854 -0.021389281 0.021454841
0.036519289 -0.021713078 0.021421758
-0.040141661 -0.020163681 0.021304969
-0.038334925 -0.020683588 0.021538006
-0.037773438 -0.020926453 0.021146348
-0.036382277 -0.02072762 0.021457437
-0.035322238 -0.020487379 0.021415267
-0.034512788 -0.020623371 0.021682793
-0.033545546 -0.020616854 0.021578759
-0.032134723 -0.020342669 0.021593936
-0.031369708 -0.020561732 0.021711512
-0.030431394 -0.020294817 0.021330744
-0.02956997 -0.020437432 0.021540696
-0.028617924 -0.020758016 0.021459473
-0.027972605 -0.020282488 0.021442682
0.021790607 -0.020836594 0.021569168
0.022383794 -0.02036039 0.021591937
0.023257509 -0.020759629 0.021381222
0.024877902 -0.020192005 0.021984512
0.026946656 -0.020261019 0.021686155
0.027363885 -0.020542253 0.021532115
0.028403884 -0.020455362 0.021610444
0.029624891 -0.020329839 0.021394042
0.030514328 -0.020533893 0.021612229
0.031632081 -0.020336922 0.02155426
0.032370839 -0.02032405 0.0213193
0.033493537 -0.020630658 0.021700248
0.034321923 -0.0203832 0.021206889
0.035111204 -0.020748926 0.021413287
-0.035332929 -0.019673206 0.021381492
-0.034307402 -0.019585313 0.021349529
-0.033512827 -0.019585665 0.021529146
-0.032583334 -0.019605299 0.021674074
-0.031359993 -0.019574052 0.021769831
-0.030548742 -0.019502651 0.021694202
-0.029420799 -0.019360576 0.021535449
-0.028814558 -0.019883573 0.021751232
0.022905257 -0.019770693 0.021252271
0.023443222 -0.019371552 0.021602796
0.024637664 -0.019221015 0.021440782
0.025349045 -0.019063639 0.021494992
0.026475035 -0.019422429 0.021494599
0.02782356 -0.019594913 0.021415601
0.028384924 -0.019454649 0.02157601
0.029414853 -0.019593542 0.021362074
0.030652085 -0.019489253 0.021305626
0.03172566 -0.019706795 0.021132344
0.032438591 -0.01982124 0.021351663
0.033089481 -0.019526318 0.021265011
-0.034336407 -0.01879455 0.021388819
-0.033393465 -0.018520802 0.021463875
-0.032466672 -0.018492248 0.021558417
-0.031571981 -0.018630093 0.021662876
-0.030559272 -0.018385282 0.02143625
-0.029483313 -0.018446438 0.021665454
-0.028329529 -0.018671175 0.021398265
-0.027749503 -0.018440649 0.021636698
0.023577642 -0.018908143 0.021313798
0.024517491 -0.018545842 0.021471595
0.025497228 -0.018463941 0.021530585
0.02649647 -0.018716158 0.021567075
0.027520381 -0.018581869 0.021498786
0.028499385 -0.0187416 0.021567963
-0.034204058 -0.017644448 0.021105766
-0.033323467 -0.017583644 0.021502847
-0.032538339 -0.01754714 0.021394253
-0.031435721 -0.017419532 0.021453474
-0.030638214 -0.017551633 0.021324385
-0.029553974 -0.017636595 0.021618312
-0.028746694 -0.0177455 0.02171069
0.026632335 -0.01780881 0.021079864
-0.032177299 -0.016591957 0.021232035
-0.031669538 -0.016701715 0.021349974
-0.03022851 -0.016757639 0.021419123
-0.029591259 -0.016703736 0.021344826
-0.030522995 -0.015936326 0.021143597
-0.0014796869 0.011691213 0.02102451
0.0007753009 0.011808634 0.021034243
-0.0033676771 0.012600594 0.021356994
-0.0025197132 0.012806902 0.021412004
-0.0014806686 0.012730088 0.021640917
-0.00041320611 0.012618032 0.021575382
0.00053432788 0.012582748 0.021475762
0.0012571043 0.012611288 0.021044903
0.0024457211 0.012763448 0.02100889
0.0032212008 0.012679413 0.02131913
-0.006021603 0.013737917 0.021194067
-0.0050720833 0.013766333 0.0214753
-0.0045349989 0.013681565 0.021760494
-0.0034153394 0.013390771 0.021375282
-0.0028503696 0.013415267 0.021804312
-0.0014187698 0.013195329 0.021941345
0.0014857377 0.013185657 0.021815633
0.0026159997 0.013272402 0.021484327
0.0034355039 0.013481699 0.021476656
0.0045233057 0.013505874 0.021795277
0.0052070282 0.013781043 0.021965774
-0.0063276677 0.014626461 0.021516994
-0.0054440768 0.01453962 0.021352453
-0.0044647502 0.014442913 0.021670295
0.0038038082 0.014113518 0.021530211
0.0046029468 0.014459965 0.02146706
0.0053410605 0.01457122 0.021532996
0.0060910033 0.014742736 0.021383304
-0.0074363863 0.015456917 0.021705166
-0.006415206 0.015325233 0.021586174
-0.0055151773 0.015636094 0.021575617
-0.0049326541 0.015134811 0.021772778
0.0055212849 0.015333992 0.021419261
0.0063858861 0.015462709 0.021593925
0.0075734369 0.015571418 0.021204293
-0.0079599498 0.01674263 0.021193909
-0.0065252259 0.01632685 0.021410802
-0.0058808122 0.016725698 0.02183203
0.0059937206 0.016272161 0.021072511
0.0064709429 0.01652047 0.021444663
0.0070827585 0.016038213 0.021918904
-0.0075969757 0.017224811 0.021517359
-0.0064509055 0.017549893 0.021696603
0.0064621279 0.017389474 0.021463014
0.0074466043 0.017646795 0.021881873
-0.0071537569 0.01828324 0.021652687
-0.0064300583 0.018581318 0.021294065
-0.0059090285 0.018388174 0.021202814
0.0067070737 0.01848078 0.021556815
0.0073586493 0.018356744 0.021762148
0.0082429945 0.018346895 0.02134045
-0.007450887 0.019110598 0.021126194
-0.0066924603 0.019437416 0.021510549
-0.0057787243 0.019868026 0.021473758
0.0058889403 0.019746922 0.021884162
0.0065508247 0.019456586 0.021626553
0.0071189515 0.019004142 0.021902237
-0.006325868 0.020627161 0.021489888
-0.0056042918 0.020551192 0.021656116
0.0058186674 0.020739112 0.021646377
0.0065134382 0.020452403 0.021582576
-0.0061386079 0.021129249 0.021377841
-0.0055193151 0.021208936 0.021507269
-0.0046197902 0.021580456 0.021535749
-0.0038961601 0.02168557 0.021547833
0.0037187068 0.021980252 0.021844674
0.004659899 0.021747129 0.021447187
0.0053923824 0.021286026 0.021267151
0.0062635257 0.021417296 0.021447765
-0.0043149269 0.022367537 0.021281129
-0.0034444977 0.022489747 0.021614747
-0.0025389285 0.022685537 0.021746991
-0.0014797268 0.022974739 0.021683158
-0.00035374612 0.022823799 0.021734826
0.0014195661 0.022728149 0.021535482
0.0023914175 0.022803007 0.021528685
0.0036150303 0.022641143 0.021595644
0.004708597 0.022476986 0.021547303
0.0050880793 0.02203773 0.021358764
-0.0027345973 0.023147732 0.021561952
-0.0013787448 0.023216756 0.021635124
-0.00037495029 0.023431912 0.021706773
0.00048445645 0.023270562 0.021781968
0.0014277275 0.023308957 0.021595696
0.0024298758 0.023232123 0.021458533
0.0030907285 0.023114007 0.021497367
-0.013250853 0.033638205 0.021121316
-0.014169395 0.03459686 0.021030368
-0.013449433 0.034804013 0.021195078
-0.012530448 0.034629297 0.021366732
-0.011486842 0.034777649 0.021464914
-0.010415503 0.034806587 0.021615587
-0.0091654435 0.034901761 0.021222282
-0.0089052394 0.03464666 0.021027207
-0.013217215 0.03554308 0.021275144
-0.012308261 0.035638113 0.021333223
-0.01156149 0.035477366 0.021397676
-0.010529699 0.035536148 0.021673894
-0.0093046473 0.035311285 0.021417366
-0.008440136 0.035286732 0.021467488
-0.0075135678 0.035388593 0.021617958
-0.0064819059 0.03555027 0.021612203
-0.0055168686 0.0356468 0.021627435
-0.0044983448 0.035564326 0.02155754
-0.0034847171 0.035783887 0.021396102
-0.0026867595 0.035873976 0.021756828
-0.0014735593 0.035978012 0.02180098
-0.00061670854 0.03587956 0.021434058
0.00020917288 0.035841648 0.021476746
0.001507011 0.035900168 0.02143955
0.0033054429 0.035986431 0.021291124
0.0043699816 0.035979781 0.021308359
0.005805539 0.035748214 0.021505244
0.0073616775 0.035842657 0.021246675
0.0088938652 0.035872955 0.021416208
0.0091253109 0.035301726 0.021819714
0.010414689 0.035893992 0.021519613
0.011437198 0.035660945 0.021338277
-0.012415369 0.036107227 0.021066241
-0.011466277 0.036426708 0.021368856
-0.010696219 0.036379877 0.021623377
-0.0095445095 0.03646104 0.021573862
-0.00838996 0.0366151 0.021325383
-0.0021757092 0.036032159 0.021202162
-0.0016907572 0.036058538 0.021724315
-0.0005506415 0.036153022 0.021608608
0.00042471819 0.036160577 0.021548739
0.0013756572 0.036064226 0.021741733
0.0028019804 0.036112078 0.021557253
0.0034902648 0.036198229 0.021742126
0.0044807778 0.036172867 0.021490684
0.005261702 0.036156245 0.021515483
0.0066128429 0.036435399 0.021910505
0.0074426485 0.036339026 0.02168908
0.0085607674 0.036555801 0.021437239
0.0094031878 0.036326159 0.021613277
0.010608824 0.036452372 0.021344054
-0.01033555 0.037276339 0.021482419
-0.0094344355 0.037259646 0.021576291
-0.0084607257 0.03744885 0.021745024
-0.0075503862 0.037421305 0.021463573
-0.0064073489 0.03771593 0.021586502
-0.0055929399 0.037699815 0.0212462
-0.0041546156 0.037713222 0.021538481
-0.0038281477 0.037938796 0.021317296
-0.0028922081 0.037794508 0.021126213
-0.0014861441 0.037674628 0.021892367
-0.00014386373 0.037804365 0.021895707
0.00091322046 0.037729595 0.021268735
0.0012712195 0.037890337 0.02198489
0.0022205943 0.037574429 0.021743812
0.0032914311 0.037898809 0.021596706
0.0046012388 0.037658531 0.021550681
0.0054875421 0.037613228 0.021603715
0.0064750211 0.037563197 0.021462088
0.0072930753 0.037550099 0.021674154
0.0085128536 0.037115924 0.02143438
0.0098606981 0.037107199 0.021183355
-0.007742675 0.03803847 0.02199709
-0.0069947108 0.038087152 0.021040605
-0.0054911142 0.038262207 0.02151788
-0.0047502839 0.038078073 0.021374358
-0.0034547932 0.038373627 0.021244435
-0.0028237114 0.038488053 0.021490645
-0.0013933301 0.038279153 0.021617953
-0.00036336767 0.038323678 0.021479573
0.00034677735 0.038372491 0.021324588
0.0014505616 0.038354028 0.021452352
0.002524324 0.038248911 0.021252293
0.0034274128 0.038344525 0.02130414
0.004467411 0.038470011 0.021456415
0.0054209251 0.038044795 0.021489372
0.0064818179 0.038345795 0.021627
-0.0025341706 0.039146468 0.021360479
0.02894444 -0.031236475 0.022285851
0.029505355 -0.031108584 0.022676807
0.030476717 -0.031408511 0.022194469
0.031617105 -0.031325947 0.022494128
0.032246307 -0.031770855 0.022152305
0.033004332 -0.031693824 0.022422627
0.03402777 -0.031469621 0.022127174
0.026312776 -0.03033787 0.022480071
0.027757745 -0.03035822 0.022364195
0.028392732 -0.030411614 0.022321634
0.029510668 -0.030246532 0.022511097
0.030655462 -0.030508205 0.022627275
0.031574994 -0.030352907 0.022567319
0.032420021 -0.030504286 0.022794198
0.033431929 -0.030535111 0.022247674
0.034480155 -0.030314805 0.022379903
0.024539735 -0.029339217 0.022709245
0.025523573 -0.029508561 0.022453887
0.026475191 -0.029604008 0.022559328
0.027633186 -0.029677726 0.022412624
0.028351128 -0.029520867 0.022676406
0.029506728 -0.029537037 0.022483222
0.030300787 -0.029557088 0.022506425
0.03153399 -0.029650634 0.022655874
0.032304194 -0.029666593 0.022328919
0.033522047 -0.029555993 0.022346582
0.034205001 -0.0296642 0.022367919
0.035554938 -0.029665375 0.022264874
0.023572145 -0.02849959 0.022478784
0.0244962 -0.028726634 0.022491103
0.02508465 -0.028340638 0.022609927
0.026316533 -0.028924925 0.02247658
0.028739335 -0.028932227 0.022826027
0.029455353 -0.028911456 0.022669522
0.031812098 -0.02897823 0.022433989
0.032474354 -0.028937936 0.02250535
0.033583812 -0.028366176 0.022762379
0.034416217 -0.028593224 0.022661524
0.035429407 -0.028415268 0.022559667
0.023467788 -0.027556943 0.02260074
0.024386398 -0.02742951 0.022390023
0.033962987 -0.027873302 0.022221031
0.034506381 -0.027629834 0.022605496
0.035590354 -0.02736498 0.022615213
0.036264312 -0.027311828 0.022406615
0.022339925 -0.02650835 0.022528682
0.023311323 -0.026676187 0.022347026
0.034761254 -0.026619608 0.022602491
0.035313938 -0.026515057 0.022256445
0.036395531 -0.026478473 0.022448029
0.021694763 -0.025243945 0.022354322
0.022732403 -0.02568385 0.022254206
0.034808144 -0.025516931 0.022921013
0.035683312 -0.025539348 0.022497093
0.036417782 -0.025262211 0.022455769
0.037339851 -0.025443394 0.022026313
-0.033415083 -0.024087906 0.022003435
-0.032745015 -0.024385359 0.022392839
-0.031939819 -0.024256364 0.022093588
0.022470882 -0.024688527 0.022399656
0.02345651 -0.02471976 0.022533584
0.029348549 -0.024438096 0.022928284
0.030684888 -0.024050005 0.022219941
0.032678954 -0.024151292 0.022836136
0.034139697 -0.02481949 0.022989899
0.035564065 -0.024679339 0.022601929
0.036558349 -0.024506625 0.022517838
-0.03811207 -0.023371063 0.022172041
-0.03746276 -0.023612102 0.022214955
-0.03525991 -0.023201324 0.02230208
-0.034664825 -0.023309804 0.022479858
-0.033389721 -0.023281166 0.022642883
-0.03266792 -0.023606544 0.022400871
-0.031403076 -0.023571098 0.022293311
-0.030346302 -0.023190221 0.022783224
0.021705002 -0.023235738 0.022304112
0.022342127 -0.02363041 0.022483911
0.026968379 -0.023373831 0.022744795
0.027624195 -0.023582369 0.022831365
0.028537968 -0.02337086 0.022659143
0.029528104 -0.023520857 0.022576723
0.030017458 -0.023805549 0.022915177
0.031706795 -0.023278654 0.022246715
0.032147177 -0.023317555 0.022510413
0.033877153 -0.023206728 0.022830863
0.034849301 -0.023887394 0.022960488
0.035665363 -0.023665207 0.02258148
0.036619935 -0.023902982 0.022261618
0.03740792 -0.023298198 0.022052074
-0.039239969 -0.022233289 0.022113565
-0.038072061 -0.022287197 0.022086555
-0.037247822 -0.022602309 0.022282144
-0.036446203 -0.022377398 0.022446385
-0.035344236 -0.022517642 0.022484986
-0.03459999 -0.022314509 0.022501115
-0.033448 -0.022616578 0.022358047
-0.032583494 -0.022507504 0.022574397
-0.031423502 -0.022728607 0.022430757
-0.03059165 -0.02256616 0.022613123
-0.029711604 -0.022480477 0.022760676
0.021771705 -0.022725403 0.022636119
0.023460254 -0.022204053 0.022730738
0.027529707 -0.022316253 0.022851832
0.028542642 -0.022492561 0.022402713
0.029534575 -0.022584952 0.022605434
0.030439904 -0.022626236 0.022521259
0.031577222 -0.02265355 0.022425855
0.032909557 -0.022206385 0.022620685
0.03386429 -0.022108926 0.022448033
0.034591004 -0.022519013 0.02245695
0.035516869 -0.022549579 0.022427924
0.036348753 -0.022540623 0.022261558
-0.037140105 -0.021834102 0.022235401
-0.035345916 -0.021449858 0.022252411
-0.03448974 -0.021391891 0.02247081
-0.033482734 -0.021904528 0.02243579
-0.032372348 -0.021494584 0.022307698
-0.031468235 -0.021621525 0.022458281
-0.030685132 -0.021698395 0.022606701
-0.029270656 -0.021053562 0.022533033
0.021619588 -0.021152351 0.022048473
0.022524642 -0.021608379 0.022595756
0.026970064 -0.021006377 0.022579908
0.027556298 -0.021351241 0.022421008
0.028528385 -0.021471785 0.022426046
0.029444778 -0.021550577 0.022445235
0.030377815 -0.021587361 0.022426162
0.031442042 -0.021436345 0.022405861
0.032264028 -0.021354923 0.022502998
0.033431001 -0.021277558 0.022407416
0.034315985 -0.021545539 0.022560839
0.035613202 -0.021873677 0.022453018
0.036135789 -0.021845371 0.02207206
-0.035637256 -0.020370509 0.022074403
-0.034501597 -0.020423478 0.022289528
-0.033412971 -0.020632433 0.022479316
-0.03267483 -0.020542936 0.022451131
-0.03150592 -0.020451987 0.022460466
-0.030639328 -0.020592645 0.022638949
-0.029667156 -0.020097855 0.022584708
0.021989236 -0.020996917 0.022194536
0.02295322 -0.02047522 0.022481035
0.023442391 -0.020677343 0.022572033
0.024460377 -0.020419164 0.022442717
0.025473299 -0.020383425 0.022701254
0.026609475 -0.020368218 0.022820868
0.027680047 -0.02062045 0.022375526
0.029380444 -0.020434596 0.022174383
0.030624673 -0.020592943 0.022210201
0.031504247 -0.020663783 0.022377618
0.032722909 -0.020447783 0.022144714
0.033488046 -0.02068541 0.022300577
0.034657367 -0.020746917 0.022378141
-0.033451341 -0.019789804 0.022749212
-0.032428216 -0.019387987 0.022400197
-0.031604793 -0.019661993 0.022346685
-0.030313155 -0.019471053 0.02248056
-0.029448284 -0.019752992 0.022358866
-0.028801138 -0.0199407 0.022130834
0.022874152 -0.01989311 0.022407247
0.023506466 -0.019750929 0.022462297
0.024660408 -0.019400222 0.022354875
0.02547195 -0.019622538 0.022573519
0.026529985 -0.019444734 0.02244556
0.027454987 -0.019533861 0.022431938
0.028153609 -0.019698739 0.022219982
0.029074589 -0.019899137 0.022005038
-0.033377904 -0.018716486 0.022210598
-0.032351039 -0.018513858 0.022411738
-0.031482592 -0.018518034 0.022419525
-0.030720279 -0.018561855 0.022336559
-0.029519636 -0.018848198 0.022341242
-0.028645238 -0.018514596 0.022297859
0.024381075 -0.01892248 0.022410303
0.025385432 -0.018816827 0.022479657
0.026199859 -0.01879289 0.022238057
0.027969075 -0.018855724 0.022497049
-0.033282161 -0.017806709 0.022098251
-0.032674234 -0.01798179 0.022260765
-0.031600825 -0.017941613 0.022362944
-0.030606475 -0.01764063 0.022349058
-0.029684197 -0.017465534 0.022129137
-0.003591923 0.012890141 0.02246945
-0.0023286752 0.012193246 0.022107564
-0.0014671935 0.012760288 0.022348844
-0.00053917913 0.01265875 0.022635402
0.00048263208 0.012795278 0.022451496
0.0013683503 0.01283451 0.022585353
0.0023783513 0.012655452 0.022678101
0.0034540594 0.012864028 0.022856141
-0.0051383856 0.013451487 0.0227971
-0.0044476297 0.013728835 0.022355344
-0.0032928605 0.013431497 0.022263478
-0.0025998354 0.013231871 0.022492701
-0.0017507465 0.013218241 0.02281913
-0.00039798755 0.013035919 0.022577139
0.00051697437 0.013162555 0.02277297
0.001480306 0.013173823 0.022445619
0.0026183901 0.013404279 0.022508668
0.0035135809 0.013637851 0.022319352
0.0041082641 0.013563409 0.022266226
-0.0061211823 0.014675778 0.022514114
-0.0053350851 0.014486126 0.022527328
-0.0046091438 0.014166977 0.022636861
-0.0036612102 0.014028723 0.022125006
0.0037500104 0.014293388 0.02277014
0.0045530512 0.014506979 0.022618588
0.0054687001 0.014461163 0.0228955
-0.0064618937 0.015666295 0.022331629
-0.0054763793 0.01544188 0.02241976
-0.0049684364 0.015231875 0.022420242
0.0054087848 0.015657455 0.0228025
0.0062891738 0.015489354 0.022530733
-0.0071041021 0.016812606 0.022544112
-0.0065141334 0.01679679 0.022463808
-0.0055588288 0.016520118 0.022473402
0.0066374941 0.016324054 0.022307172
-0.0072424547 0.017704228 0.022459779
-0.0065335655 0.017215613 0.022720369
-0.0058398303 0.017823968 0.022191746
0.0059740427 0.017412815 0.02294269
0.0064683221 0.017622784 0.022469398
0.0073699285 0.017528696 0.022601983
-0.0071922364 0.018525138 0.022502759
-0.006485709 0.018636389 0.022424277
-0.00545514 0.018783145 0.022755947
0.0057667899 0.018704157 0.022105888
0.0066078808 0.018460931 0.022618473
0.007479623 0.018273994 0.022806959
-0.0065699229 0.019428411 0.022474315
-0.0055678473 0.01955056 0.022635322
0.0056900051 0.019879622 0.022719869
0.0065596392 0.019536082 0.022619937
0.0070359046 0.019866617 0.022710476
-0.0062546991 0.02038401 0.022513065
-0.0056207543 0.020475183 0.022267625
-0.0046731709 0.020649374 0.022601504
0.0048949588 0.020776229 0.022409782
0.0056521567 0.020276174 0.022351209
0.0063708839 0.020929659 0.022465406
0.0070793862 0.020000733 0.022823578
-0.005166091 0.021546325 0.022545239
-0.0044066394 0.021683069 0.022744533
-0.0038385519 0.02155927 0.022673041
-0.0028167786 0.021881405 0.022722434
0.0037220467 0.021702083 0.022602586
0.0045916168 0.021637235 0.022483824
0.0053808438 0.021386776 0.02250821
-0.0041221399 0.022521773 0.022548484
-0.0035054747 0.022581009 0.022427119
-0.0026732492 0.022521045 0.022444678
-0.0018038028 0.022723321 0.022710506
-0.00011412892 0.022810824 0.022437388
